# .PCD v0.7 - Point Cloud Data file format
VERSION 0.7
FIELDS x y z
SIZE 4 4 4
TYPE F F F
COUNT 1 1 1
WIDTH 723
HEIGHT 1
VIEWPOINT 0 0 0 1 0 0 0
POINTS 723
DATA ascii
-0.20094664 0.015227549 0.03998933
-0.19540185 0.015802901 0.038772397
-0.18436912 0.01389409 0.038704157
-0.20013495 0.020131532 0.039826989
-0.19438417 0.025278714 0.038704395
-0.18443015 0.026475148 0.037477408
-0.1784244 0.025002787 0.038830753
-0.19280048 0.036010455 0.038377456
-0.1854734 0.034659225 0.036832668
-0.17712274 0.035205778 0.038236268
-0.1934012 0.045175232 0.038056321
-0.1858916 0.044673502 0.036473021
-0.17681356 0.045374881 0.037757576
-0.19287787 0.054431941 0.037647888
-0.18450539 0.055070508 0.036178008
-0.17606761 0.05560689 0.037620403
-0.20012251 0.066647261 0.039649002
-0.19361621 0.064943008 0.037375554
-0.18340914 0.063686587 0.035889905
-0.17678434 0.065336019 0.037030891
-0.19639562 0.07436382 0.037565026
-0.1848447 0.07434614 0.035329349
-0.17700343 0.074588291 0.03741312
-0.20060527 0.088179506 0.039502822
-0.19480935 0.08467713 0.036824819
-0.18356593 0.085223399 0.036106709
-0.17715769 0.084145479 0.038583249
-0.20123872 0.097895145 0.039210416
-0.19537644 0.094377041 0.036927547
-0.18270643 0.095697716 0.036730386
-0.17797565 0.096222587 0.038924098
-0.20080514 0.10584589 0.038933441
-0.19549121 0.10489161 0.036948409
-0.1844448 0.10515128 0.036724452
-0.17911008 0.1021987 0.03885702
-0.2013028 0.11305962 0.039181668
-0.19584204 0.11459035 0.037131935
-0.18444094 0.11544975 0.037319537
-0.17974716 0.11278817 0.039583422
-0.20139457 0.12826215 0.039148085
-0.19502617 0.12441347 0.037047129
-0.18514572 0.12493809 0.037447255
-0.20119284 0.13186532 0.039077133
-0.19411568 0.13542821 0.036941756
-0.18599625 0.13564737 0.037158888
-0.19406918 0.14517543 0.037538346
-0.18550639 0.14491823 0.037537374
-0.19425282 0.15490857 0.038010098
-0.18496303 0.15406302 0.038412243
-0.20019236 0.16438051 0.039838467
-0.19584915 0.16496477 0.038877156
-0.18710251 0.16549575 0.038742416
-0.19203569 0.17287952 0.038993172
-0.18924525 0.1757303 0.039697006
-0.16940628 0.008905964 0.047765668
-0.21546657 0.014672286 0.046802688
-0.20573223 0.015421301 0.04175904
-0.17423336 0.013636104 0.042731557
-0.1683712 0.017157275 0.047150433
-0.21319494 0.025320901 0.047415331
-0.20533162 0.024221001 0.042594474
-0.19993162 0.027895018 0.040351655
-0.17205429 0.025588535 0.041978959
-0.16696556 0.025069863 0.047342747
-0.21270576 0.034297079 0.047510177
-0.2044729 0.034423735 0.042944521
-0.1990476 0.034739919 0.040219042
-0.17106773 0.033419661 0.041683063
-0.16614224 0.035939012 0.047024619
-0.21273527 0.0450847 0.047560133
-0.20425195 0.045285139 0.043167219
-0.19991902 0.04114927 0.040781263
-0.17064342 0.044011347 0.04135659
-0.16643943 0.046378534 0.04662377
-0.21172737 0.054490037 0.047310114
-0.20457239 0.05564788 0.042947982
-0.1994331 0.051845551 0.040804125
-0.17067702 0.054501582 0.041372433
-0.16683704 0.055167709 0.046092145
-0.21225004 0.064455956 0.047527943
-0.20484732 0.065391637 0.042803206
-0.17115422 0.065415211 0.041330028
-0.16651982 0.065341033 0.04713827
-0.21358554 0.074557759 0.047751378
-0.20480412 0.074563086 0.042328272
-0.17167391 0.075009532 0.042223327
-0.16693102 0.075299293 0.047425393
-0.21362321 0.085112683 0.047158305
-0.2057676 0.084745213 0.042006023
-0.17152715 0.085945114 0.043565415
-0.1675283 0.084749863 0.047703888
-0.21301219 0.095614493 0.04625589
-0.20577811 0.094648428 0.041812666
-0.17268765 0.09465725 0.043539647
-0.16836399 0.095035218 0.048608094
-0.21545838 0.10498949 0.046933889
-0.20626007 0.10397097 0.041958299
-0.17291313 0.10511136 0.044728398
-0.16952798 0.10719182 0.048769027
-0.2150003 0.1155043 0.046542212
-0.20588848 0.11456905 0.04126253
-0.17370662 0.11482624 0.044824846
-0.16992003 0.11745772 0.049079981
-0.21626186 0.12535462 0.046996456
-0.20685512 0.12499405 0.041721478
-0.17442243 0.1253736 0.044403944
-0.22086084 0.1343942 0.049915202
-0.21568453 0.13538249 0.046245195
-0.20676064 0.13479196 0.041672193
-0.18047071 0.13768055 0.040352859
-0.17472301 0.13537495 0.04497866
-0.21549401 0.1465113 0.045797858
-0.20620827 0.14517511 0.041264478
-0.17517968 0.14436927 0.044659518
-0.22051188 0.1507878 0.049511891
-0.21470374 0.1560619 0.045293588
-0.20592591 0.15485364 0.041252594
-0.18075921 0.15086655 0.040160526
-0.17597546 0.15522198 0.044239115
-0.22057478 0.16246228 0.049681082
-0.21561949 0.16595162 0.046254486
-0.20573208 0.16497345 0.041293625
-0.18127631 0.16623774 0.041371122
-0.17435317 0.16570261 0.046804443
-0.21555644 0.1750119 0.046534225
-0.20536494 0.17503528 0.04192096
-0.19436967 0.17798594 0.040100753
-0.18270011 0.17559548 0.042085856
-0.17596489 0.17457561 0.046658408
-0.21443048 0.18487777 0.046943709
-0.20468768 0.18429273 0.042642135
-0.19506297 0.18482479 0.04044662
-0.18480499 0.18525155 0.042494282
-0.17687714 0.185058 0.04765898
-0.21233168 0.19606157 0.047339607
-0.20371439 0.1939373 0.043621127
-0.1945778 0.19567882 0.042087004
-0.18411395 0.19505976 0.044557311
-0.17876616 0.19563572 0.048167516
-0.21203625 0.20370679 0.048563104
-0.20552714 0.205953 0.046411697
-0.19666518 0.2042381 0.043577697
-0.18487248 0.20522469 0.046618041
-0.21012972 0.21472491 0.049970932
-0.2040443 0.2144807 0.047585927
-0.1946862 0.21606907 0.046425328
-0.18568598 0.2140853 0.048055455
-0.20239313 0.22318433 0.049248487
-0.195328 0.22318736 0.048747636
-0.18844925 0.2227391 0.049109071
-0.22464752 0.015584776 0.054359939
-0.16447619 0.013788397 0.054018181
-0.22330855 0.024161147 0.05511662
-0.21939008 0.025260232 0.051211175
-0.16252859 0.024500184 0.055567302
-0.22237605 0.034390178 0.055255398
-0.21794119 0.034698121 0.051114399
-0.16184698 0.034137152 0.055204108
-0.22252703 0.044572789 0.056016255
-0.21759307 0.045793124 0.051201977
-0.16155761 0.045188542 0.056256104
-0.22187492 0.055322867 0.05615259
-0.21829194 0.054711137 0.051796991
-0.16258559 0.055126186 0.055424504
-0.22213721 0.065049574 0.05628458
-0.21796142 0.063720144 0.05134004
-0.16418849 0.064287826 0.05347744
-0.22197521 0.074803889 0.055532843
-0.21792686 0.075580768 0.051356945
-0.16355902 0.075351328 0.054697588
-0.22266439 0.085964352 0.055818651
-0.21932471 0.084295452 0.052196082
-0.16394821 0.085874513 0.053809486
-0.2215416 0.095387295 0.053420682
-0.21875024 0.093798116 0.050379694
-0.16484746 0.095433801 0.05390941
-0.22181712 0.10440671 0.05330896
-0.16531128 0.10484821 0.054197226
-0.22276843 0.1155187 0.054966219
-0.16577618 0.11485398 0.054583799
-0.22254057 0.12412086 0.054195981
-0.16616629 0.12475146 0.054743543
-0.22340213 0.13504149 0.054395199
-0.16613773 0.13477832 0.054373804
-0.22333667 0.14518532 0.053995192
-0.16615961 0.14467023 0.054479375
-0.22312273 0.15467575 0.052894659
-0.16612908 0.15440622 0.054783687
-0.223122 0.16423261 0.053159989
-0.17057002 0.16765374 0.050448358
-0.16633946 0.16470343 0.055033132
-0.22326204 0.17381878 0.053999197
-0.17120728 0.1763016 0.051253058
-0.16642416 0.17497803 0.05695045
-0.222569 0.18472995 0.053827949
-0.21885106 0.18870768 0.050222371
-0.17133336 0.184433 0.0528032
-0.16777101 0.18341646 0.057192814
-0.22221698 0.19518061 0.054848593
-0.21823499 0.19698925 0.051215343
-0.17311336 0.19588463 0.05338534
-0.16942751 0.19542921 0.057863962
-0.22261213 0.20620614 0.057344366
-0.21743301 0.20623326 0.05250128
-0.17389897 0.20566829 0.055111248
-0.22062284 0.21425307 0.058181241
-0.21499863 0.21530746 0.053422492
-0.18057697 0.21550827 0.050750855
-0.17594016 0.21588452 0.05564028
-0.21463288 0.22351897 0.05591869
-0.20676421 0.22661315 0.051911023
-0.19530244 0.22886094 0.050345369
-0.18355983 0.22598201 0.052538127
-0.17771262 0.22337005 0.056708872
-0.21205497 0.23549938 0.057237398
-0.20381984 0.23560932 0.053353615
-0.19504172 0.23607254 0.051886123
-0.1848661 0.23403189 0.055239335
-0.17992775 0.23009956 0.057822675
-0.21052992 0.24430361 0.058643252
-0.20510355 0.24588948 0.056360494
-0.19290097 0.24539439 0.054919522
-0.18709709 0.24320406 0.057726637
-0.203307 0.25561103 0.057577811
-0.19444199 0.25427046 0.05718682
-0.2018839 0.26324022 0.057694901
-0.1954311 0.266112 0.058477718
-0.20221919 0.27240413 0.05924923
-0.19572102 0.27458063 0.05775293
-0.1955484 0.28101319 0.059413739
-0.23058897 0.012565581 0.066972524
-0.22831507 0.016201328 0.06148107
-0.16079997 0.014665142 0.062763482
-0.15996948 0.017154815 0.066739574
-0.22730693 0.024312254 0.065080561
-0.1606115 0.024546739 0.060165513
-0.15937522 0.025065798 0.066321835
-0.22646855 0.035327319 0.062894084
-0.16013753 0.034912348 0.061347865
-0.15922162 0.035068855 0.066004023
-0.22591422 0.044688132 0.065811932
-0.16022921 0.043125018 0.06090346
-0.15957306 0.045270067 0.066175088
-0.22514609 0.054105159 0.064219669
-0.16057211 0.056438848 0.062230449
-0.15999998 0.055451319 0.067797966
-0.22447103 0.066399038 0.064446174
-0.16110943 0.064739823 0.063398346
-0.22452475 0.07528799 0.064883262
-0.16100858 0.074810192 0.064774491
-0.22473584 0.085055806 0.064941846
-0.160842 0.084351182 0.062660098
-0.16 0.084303282 0.067286544
-0.22461247 0.094236061 0.064661659
-0.16086379 0.095037319 0.064214274
-0.22485709 0.10588346 0.064493529
-0.16135228 0.10354622 0.064997017
-0.2256469 0.1164362 0.06591177
-0.16166006 0.11613554 0.067070946
-0.22570097 0.12456812 0.066391416
-0.16133149 0.12473864 0.064699315
-0.16 0.12919937 0.069911622
-0.22583459 0.13538933 0.064388774
-0.16113734 0.1352441 0.063482136
-0.16 0.13565865 0.067841858
-0.22624913 0.14489809 0.063789435
-0.16080636 0.14569746 0.063741893
-0.16 0.14482795 0.067854352
-0.22628999 0.1554165 0.063336208
-0.1611407 0.1553105 0.065786235
-0.2259852 0.16541393 0.06410744
-0.1619117 0.16579624 0.065664776
-0.2252752 0.17506222 0.065592125
-0.1630379 0.17475009 0.064972445
-0.2250718 0.18504074 0.0647339
-0.16489704 0.18640411 0.064210035
-0.22568326 0.19598788 0.064612471
-0.16640693 0.19531338 0.064157642
-0.22614515 0.20483842 0.064745143
-0.16644892 0.20331645 0.066509895
-0.22375956 0.21463206 0.06463021
-0.17087623 0.21664827 0.063070022
-0.1690806 0.21420346 0.066152282
-0.22188181 0.22507317 0.065446779
-0.21918032 0.22787908 0.062963106
-0.17407608 0.22588636 0.064146526
-0.22116238 0.23238979 0.068678841
-0.21671468 0.2357439 0.06264586
-0.18083265 0.23806138 0.061715446
-0.17693232 0.23384079 0.065950483
-0.21434419 0.24596494 0.064467773
-0.18323293 0.24537075 0.064165324
-0.17933673 0.24093895 0.069194309
-0.21203762 0.2548711 0.063832812
-0.207912 0.2582151 0.060855746
-0.18687628 0.25535342 0.065008268
-0.21166518 0.26501375 0.066272065
-0.20768638 0.26514187 0.06232959
-0.19092685 0.26364172 0.06062533
-0.18743794 0.26656237 0.065625802
-0.21125461 0.275601 0.067979448
-0.20668152 0.27545908 0.063262694
-0.19062547 0.2732935 0.060374521
-0.18697931 0.27519765 0.065879054
-0.21034752 0.28029871 0.068126723
-0.2033945 0.28392595 0.065232046
-0.1940165 0.2861771 0.063742481
-0.18677677 0.2834996 0.066048011
-0.20208079 0.29035431 0.069244906
-0.19773033 0.29098922 0.06812951
-0.2308974 0.012686849 0.073770158
-0.22929271 0.016452895 0.078561783
-0.16054423 0.01486396 0.078835763
-0.15983041 0.014924839 0.073551849
-0.22789405 0.02461366 0.074040234
-0.16027242 0.023971792 0.078362182
-0.15954338 0.0251949 0.074481033
-0.22699864 0.035255853 0.074825823
-0.16014011 0.033778742 0.077700593
-0.15928809 0.035788599 0.073052727
-0.22619288 0.045448832 0.074984245
-0.16018537 0.046531867 0.077404901
-0.1595543 0.044143654 0.074239075
-0.22578403 0.053793829 0.073331289
-0.16079533 0.055725086 0.078125022
-0.16 0.054383855 0.07369151
-0.22500001 0.064365692 0.075322129
-0.16100268 0.064568356 0.075091325
-0.22500001 0.075760551 0.074250512
-0.16170804 0.074977264 0.07400164
-0.22500001 0.08515431 0.074136272
-0.16188332 0.086080775 0.074921548
-0.22500001 0.094871454 0.074908547
-0.16183151 0.095686443 0.073223166
-0.22500001 0.10423078 0.075207181
-0.1625718 0.10540631 0.074765369
-0.22502463 0.11470846 0.075215928
-0.16147961 0.11608232 0.075068742
-0.22579575 0.12514016 0.074875347
-0.16110739 0.12489464 0.076628231
-0.16 0.1286146 0.07119523
-0.22607028 0.13440175 0.075508788
-0.1608586 0.13505511 0.075783931
-0.16 0.13515458 0.070321031
-0.22625083 0.14486416 0.076471716
-0.16073848 0.14480862 0.075232491
-0.16 0.14227483 0.071362153
-0.2267627 0.15571335 0.074936688
-0.16107585 0.15522093 0.075433344
-0.22636023 0.16665956 0.075574376
-0.16109589 0.16379754 0.07259839
-0.22592266 0.1755176 0.074521787
-0.16253811 0.17459443 0.075365327
-0.22553869 0.18397895 0.074633896
-0.16295411 0.18401144 0.074621037
-0.22584134 0.19486715 0.074405551
-0.16425595 0.19526348 0.073603995
-0.2261195 0.20432507 0.074919567
-0.16576348 0.20670222 0.075470284
-0.22410443 0.21411878 0.075629845
-0.16844702 0.21534428 0.076085113
-0.22261479 0.22521327 0.075248808
-0.17147234 0.22497447 0.074514322
-0.22353838 0.23670278 0.074193232
-0.21984845 0.23918383 0.071713038
-0.17591059 0.23627101 0.074816883
-0.22623806 0.24109967 0.077186115
-0.21893844 0.24523644 0.074287243
-0.18102905 0.24772143 0.074099436
-0.17923696 0.24411473 0.076071531
-0.21621133 0.25643337 0.07355427
-0.18352897 0.25422621 0.074792124
-0.21528086 0.26437277 0.076092221
-0.18568505 0.26443544 0.073628612
-0.21347977 0.27529347 0.075376026
-0.18439297 0.27434948 0.074982002
-0.21141776 0.28545791 0.075299568
-0.20909154 0.28820521 0.073008612
-0.1834127 0.28584677 0.074554853
-0.1794122 0.28248417 0.078213468
-0.21021241 0.29026482 0.078121312
-0.20451474 0.29430231 0.074774787
-0.19332349 0.29377732 0.073447712
-0.18757363 0.29125321 0.075451829
-0.22992536 0.0097725969 0.085828058
-0.22860545 0.014439084 0.087777734
-0.16137663 0.01628954 0.08329834
-0.22752117 0.024272809 0.084250286
-0.16195947 0.024475014 0.084545821
-0.22620901 0.034208637 0.086102262
-0.16204944 0.035233472 0.084440947
-0.22579344 0.04459963 0.083790675
-0.16269259 0.045030911 0.083977059
-0.22509114 0.053918082 0.08439225
-0.16357791 0.055046167 0.084891461
-0.2251772 0.064482287 0.084117167
-0.1654624 0.06527169 0.085951358
-0.22500001 0.073866792 0.08375264
-0.1659617 0.07477998 0.085638434
-0.22500001 0.084912166 0.08429566
-0.16610664 0.085085265 0.084982097
-0.22500172 0.095748506 0.084739052
-0.16566531 0.095376983 0.085612692
-0.22512199 0.1064276 0.085277289
-0.16581693 0.10494713 0.086621754
-0.22500001 0.11363405 0.085278071
-0.16464193 0.11479893 0.085390627
-0.22543587 0.12639198 0.083670229
-0.16438022 0.12525792 0.08594007
-0.2259215 0.13499901 0.084716767
-0.16297057 0.1360295 0.085010029
-0.22591907 0.14399475 0.083770625
-0.16265008 0.14520113 0.085281081
-0.22581843 0.15427586 0.08504837
-0.16293603 0.15421124 0.084291071
-0.22579014 0.16409801 0.084762476
-0.16312072 0.16516624 0.084547549
-0.22511686 0.17401733 0.084368333
-0.16411301 0.17555197 0.084744945
-0.22459944 0.18462506 0.084003739
-0.16504097 0.18547164 0.085368186
-0.22518368 0.19635762 0.085136786
-0.16588102 0.19489273 0.083820544
-0.22492194 0.2052905 0.08437708
-0.16755275 0.20427464 0.084796019
-0.22271633 0.21684876 0.085283779
-0.17086776 0.21815331 0.085235357
-0.16926411 0.2142448 0.082931198
-0.22097342 0.22467518 0.085016258
-0.21966016 0.22882739 0.088871732
-0.17223312 0.22475268 0.084717453
-0.22009359 0.23055971 0.081532024
-0.2194123 0.23568167 0.085284241
-0.17575441 0.23479074 0.084713228
-0.21859817 0.24634433 0.08391355
-0.18139482 0.24722368 0.085510649
-0.17884043 0.24199991 0.08444941
-0.21696606 0.25643262 0.084327519
-0.18224314 0.25538179 0.085452393
-0.176 0.25420219 0.087000005
-0.21549058 0.26391008 0.08519122
-0.18393061 0.26636875 0.08356484
-0.17901726 0.2651614 0.087075777
-0.21433228 0.27499434 0.085663445
-0.18134405 0.27440402 0.086483248
-0.1792497 0.27568451 0.085080214
-0.21241051 0.28616163 0.084970355
-0.1831788 0.286814 0.085817255
-0.17977795 0.2819418 0.085006148
-0.21105562 0.29074159 0.08484149
-0.204779 0.29417971 0.08640036
-0.19443828 0.29366481 0.084883898
-0.18736184 0.29269621 0.082502417
-0.22662427 0.015413796 0.094941743
-0.16688552 0.01454492 0.095360011
-0.22569665 0.025689635 0.093992963
-0.17053005 0.020003721 0.099530041
-0.16689558 0.024482088 0.094740808
-0.22508739 0.035696372 0.093520597
-0.17153214 0.03291915 0.099399798
-0.1668115 0.035049718 0.09335386
-0.22467521 0.044764053 0.094791152
-0.17146537 0.044864215 0.097551472
-0.16726033 0.04453776 0.092493884
-0.22454396 0.05633625 0.094414935
-0.17242958 0.055081915 0.097007111
-0.16840915 0.054059524 0.092500284
-0.22408859 0.064937241 0.096420482
-0.17281951 0.064563185 0.095985241
-0.16875786 0.063489333 0.091246635
-0.22450481 0.075365126 0.094126895
-0.17333914 0.074333973 0.095877878
-0.22453749 0.085078321 0.093885109
-0.17266262 0.085073106 0.09551084
-0.1688644 0.086135641 0.090652257
-0.22413036 0.094596788 0.095526278
-0.17151508 0.095384642 0.095180802
-0.16926318 0.093987718 0.092302732
-0.22431986 0.10331048 0.095361486
-0.17094819 0.10441598 0.097203761
-0.16949055 0.10766351 0.093623072
-0.22418377 0.11492501 0.095410384
-0.17053123 0.11448398 0.098352939
-0.1685131 0.11522734 0.094173811
-0.22437826 0.12404129 0.09430141
-0.17048745 0.12232746 0.099336788
-0.16656826 0.12501031 0.093033373
-0.224168 0.13469599 0.094959162
-0.1661887 0.1351105 0.094222374
-0.22461587 0.14475806 0.093639292
-0.16556931 0.14514083 0.095507652
-0.22377254 0.1540021 0.094716877
-0.165608 0.15572801 0.096311137
-0.22395889 0.16540368 0.09522786
-0.1656771 0.16442111 0.095869668
-0.22410329 0.17485724 0.093770042
-0.16608208 0.17571469 0.095395617
-0.22348094 0.18617867 0.094047338
-0.1666269 0.18589523 0.093682215
-0.22218882 0.19410728 0.096523136
-0.1703745 0.19637482 0.098531693
-0.16865242 0.1960789 0.094087996
-0.22169405 0.20575659 0.095784754
-0.21970025 0.20771644 0.098556474
-0.1714434 0.20633249 0.097417101
-0.1693863 0.20402503 0.091406494
-0.22090848 0.2141366 0.093251027
-0.21851021 0.21718696 0.097859897
-0.17265481 0.21465647 0.094690382
-0.22033514 0.22387046 0.090376161
-0.21873675 0.22634582 0.09485545
-0.17511234 0.22504118 0.095420852
-0.21765682 0.23496942 0.094267845
-0.18157808 0.23434559 0.098894432
-0.17798802 0.23465389 0.094200619
-0.21686475 0.24507987 0.09572614
-0.19429082 0.24829432 0.098160028
-0.18349774 0.2461383 0.093924664
-0.17991051 0.24240908 0.096036077
-0.21549551 0.25446346 0.094130903
-0.19562955 0.25479266 0.097051144
-0.18281303 0.25438803 0.092571944
-0.21287157 0.26461571 0.096325047
-0.20325816 0.26868385 0.09936893
-0.19595085 0.26567128 0.096760511
-0.18493012 0.26401421 0.092894718
-0.21242566 0.27551326 0.096341722
-0.20393389 0.27782294 0.098653086
-0.19482625 0.27422872 0.096073031
-0.18640167 0.27386644 0.093009531
-0.21145955 0.28512955 0.095242374
-0.20411915 0.28522524 0.09669999
-0.1947736 0.28634164 0.093212627
-0.18756118 0.28330323 0.092332006
-0.21098572 0.29007587 0.091453336
-0.2054975 0.291354 0.091853783
-0.19899803 0.29086009 0.090452932
-0.22243313 0.014830035 0.10460997
-0.21946669 0.014252255 0.10901815
-0.17468591 0.01382781 0.10490303
-0.2217834 0.026196824 0.10472054
-0.21852045 0.021682099 0.10947956
-0.18161528 0.027888441 0.10835141
-0.17503059 0.023814728 0.10374755
-0.22178164 0.035433076 0.10530848
-0.2182893 0.03351881 0.10914731
-0.18227679 0.035568174 0.1078077
-0.17609784 0.035031781 0.1031669
-0.22181454 0.045667693 0.10486171
-0.21814743 0.044272803 0.10928207
-0.18350716 0.045165509 0.1073404
-0.17704114 0.044290479 0.10308931
-0.22169717 0.05513756 0.10452235
-0.21950801 0.052740581 0.10773939
-0.19064832 0.05373032 0.10991326
-0.18481216 0.054963097 0.10671183
-0.17759244 0.055152129 0.10164638
-0.22134525 0.065679468 0.10479867
-0.21801417 0.065626048 0.10894952
-0.18341406 0.065134756 0.10563675
-0.1784367 0.064426094 0.10134572
-0.2219062 0.07596606 0.10300487
-0.21900615 0.075344175 0.1070774
-0.18348059 0.07612323 0.10744812
-0.17857783 0.076543845 0.10211725
-0.22129813 0.085297182 0.10384259
-0.2187935 0.084195703 0.10772397
-0.18182996 0.084453605 0.10779569
-0.17767279 0.084879547 0.10216849
-0.22115242 0.095623948 0.10437399
-0.2179485 0.096227914 0.10956439
-0.18115371 0.094650105 0.10831318
-0.17650349 0.09562283 0.10330902
-0.22154872 0.1042478 0.10414647
-0.21821809 0.10379645 0.1092274
-0.1809593 0.10342882 0.10955282
-0.17627046 0.10588348 0.1046738
-0.22124951 0.11471385 0.10418172
-0.21880406 0.11109298 0.10849492
-0.17500943 0.11675061 0.10511939
-0.22166206 0.12541729 0.10346477
-0.21895139 0.12122671 0.10831077
-0.17425844 0.12624241 0.10500894
-0.22142433 0.13500986 0.1036019
-0.2189198 0.13511954 0.10794169
-0.17354333 0.13506097 0.10504571
-0.16922998 0.13697387 0.1000361
-0.22140321 0.14416431 0.10339207
-0.21784461 0.14602448 0.1087043
-0.17332473 0.14531386 0.10532475
-0.16937539 0.14487769 0.10121925
-0.22135225 0.15517585 0.10317589
-0.21865384 0.15449178 0.1074059
-0.17364462 0.15477531 0.10576367
-0.16869198 0.1513876 0.10036498
-0.22118643 0.16341253 0.10346975
-0.21800147 0.16546048 0.10754305
-0.1732884 0.16489793 0.10557299
-0.16940922 0.16378148 0.10153966
-0.22126897 0.17562062 0.10182774
-0.21690725 0.17486171 0.10711996
-0.17345719 0.1750351 0.10554791
-0.16946852 0.17472938 0.10111421
-0.22063997 0.18489508 0.10140491
-0.21578272 0.18548727 0.10654961
-0.17376807 0.18517189 0.10493581
-0.16945672 0.18010809 0.10072515
-0.22090381 0.19250548 0.10034329
-0.21563767 0.1954893 0.10443795
-0.1810742 0.19789177 0.10926617
-0.17504638 0.19471805 0.10478605
-0.21370047 0.20528847 0.10473075
-0.20962265 0.20209968 0.10875743
-0.18196242 0.20688434 0.1078466
-0.17598495 0.20315218 0.10410286
-0.21462618 0.21443829 0.10282071
-0.20824343 0.21760586 0.10723866
-0.1920381 0.21804282 0.10979811
-0.18445162 0.21549438 0.10758514
-0.1770298 0.21431701 0.10268957
-0.21498235 0.22527583 0.10245293
-0.20667864 0.22558209 0.10682375
-0.19477424 0.22626285 0.10798566
-0.18426558 0.22474913 0.10440367
-0.17879009 0.22259985 0.10170045
-0.21495683 0.2352093 0.10249057
-0.20398013 0.23513365 0.10607862
-0.19540893 0.23561472 0.10431957
-0.18614003 0.23359847 0.10238659
-0.21419996 0.24396239 0.10239439
-0.20380646 0.24561851 0.10291296
-0.19561265 0.24222298 0.10122413
-0.21185447 0.25589672 0.10205201
-0.20521049 0.25427091 0.10210817
-0.21077961 0.262445 0.10178865
-0.20607962 0.26386401 0.10161889
-0.21035589 0.27096936 0.10073495
-0.20748217 0.27235115 0.10067636
-0.2154413 0.016049018 0.11233673
-0.20597477 0.014827033 0.1141725
-0.19478646 0.014516635 0.11397772
-0.18591198 0.014699607 0.11185332
-0.21395048 0.026134741 0.11215451
-0.20454955 0.025146088 0.11385369
-0.19478959 0.02559947 0.11334376
-0.18737487 0.02272889 0.11134145
-0.21331295 0.035267588 0.11183391
-0.20407933 0.034842867 0.11309731
-0.19324671 0.03418782 0.11217377
-0.18750393 0.034871034 0.11056055
-0.21383232 0.044449333 0.11192939
-0.20575333 0.046448596 0.11299998
-0.1946664 0.04519055 0.11189076
-0.21415925 0.055829182 0.11175568
-0.20604058 0.055222422 0.11315861
-0.19585475 0.055419162 0.11200524
-0.21399106 0.065093935 0.11181869
-0.20440158 0.065565951 0.11390615
-0.1935382 0.064711064 0.11209384
-0.18937103 0.066525012 0.11033755
-0.21444118 0.076379955 0.1118834
-0.2065898 0.075094588 0.11407095
-0.19442852 0.074652135 0.11338157
-0.18783373 0.078004554 0.1110388
-0.21415314 0.085161388 0.11218844
-0.20419461 0.084658936 0.11531223
-0.1942507 0.086163484 0.1147202
-0.18784851 0.084659405 0.11218651
-0.21490207 0.094979338 0.11233945
-0.20356391 0.095527701 0.11638521
-0.19658275 0.095279351 0.11599873
-0.18606585 0.09541221 0.11225998
-0.2143295 0.1042489 0.11294873
-0.20489825 0.10563708 0.1166453
-0.19558938 0.10494133 0.11665996
-0.18575011 0.10433665 0.11262813
-0.2154194 0.11481193 0.112193
-0.20612967 0.11497179 0.11693726
-0.19362591 0.11583184 0.11726862
-0.18434253 0.11473601 0.11289053
-0.21519083 0.1255766 0.11237699
-0.20624736 0.12535617 0.11714198
-0.19474462 0.12481888 0.11786954
-0.18426885 0.12527007 0.1139133
-0.17995073 0.12322365 0.11095074
-0.21361822 0.13544032 0.11341405
-0.20569497 0.13536586 0.11736289
-0.19485794 0.13514239 0.11826562
-0.18445072 0.1350075 0.11473504
-0.17997648 0.13149017 0.11147451
-0.21343768 0.1445573 0.11309799
-0.20501009 0.14622034 0.11762503
-0.19332026 0.14544204 0.11813945
-0.18448143 0.14540114 0.11479799
-0.1791558 0.1446479 0.11115579
-0.21340817 0.15574557 0.11232292
-0.20556784 0.15550341 0.11698724
-0.19459909 0.15526591 0.1184881
-0.18531579 0.15510361 0.11527215
-0.17889906 0.15629236 0.11069641
-0.21318039 0.16641212 0.11148507
-0.20481178 0.16537035 0.11679906
-0.19404042 0.16513069 0.11795497
-0.18347955 0.1653744 0.113634
-0.21119726 0.17571713 0.11158048
-0.20519494 0.17481515 0.1156429
-0.19363289 0.17524311 0.11739016
-0.18396209 0.17554285 0.11372553
-0.17852703 0.17419416 0.11039779
-0.21049665 0.18392952 0.11119246
-0.20400001 0.18529285 0.11524881
-0.19528197 0.18511437 0.11667322
-0.18475841 0.18413456 0.11311084
-0.20539254 0.19478105 0.11298975
-0.19508153 0.1951239 0.11548658
-0.18528469 0.19516785 0.11184427
-0.2041005 0.20465146 0.11273792
-0.19311889 0.20584619 0.11309163
-0.18703324 0.20375773 0.11153194
-0.20331508 0.21430542 0.11161111
-0.19516686 0.21435028 0.11222883
-0.18903776 0.21242063 0.11034269
-0.19688769 0.22056356 0.11055212
