# .PCD v0.7 - Point Cloud Data file format
VERSION 0.7
FIELDS x y z
SIZE 4 4 4
TYPE F F F
COUNT 1 1 1
WIDTH 271
HEIGHT 1
VIEWPOINT 0 0 0 1 0 0 0
POINTS 271
DATA ascii
-0.041440636 0.012478454 -0.12052049
-0.0366637 0.012400965 -0.12057564
-0.049877379 0.0094675273 -0.11839305
-0.031116057 0.0098911393 -0.1198682
-0.023779558 0.0063383887 -0.11770657
-0.061540168 0.015460684 -0.11220348
-0.054789487 0.014415842 -0.1153229
-0.043910399 0.016371276 -0.11808325
-0.03544122 0.016887119 -0.11915966
-0.024352502 0.015174754 -0.11560126
-0.018796775 0.013558244 -0.11088513
-0.061546758 0.025411161 -0.11251298
-0.054696806 0.024608457 -0.11519079
-0.044934869 0.025171248 -0.11728746
-0.033593815 0.023962332 -0.11777521
-0.023746319 0.02460221 -0.11295373
-0.061342303 0.035779987 -0.11236686
-0.054040659 0.035466965 -0.11666391
-0.044916019 0.034024704 -0.11839133
-0.035268769 0.035343789 -0.11764011
-0.026624391 0.035231773 -0.11324855
-0.061470393 0.045748975 -0.11289727
-0.055110347 0.044483207 -0.1172755
-0.045275521 0.044880979 -0.11971326
-0.034927607 0.045578409 -0.11773735
-0.027750392 0.043570496 -0.11251829
-0.061079998 0.055970769 -0.11235821
-0.055462301 0.054911364 -0.11702817
-0.045890443 0.05457823 -0.11937106
-0.035083931 0.05466995 -0.11667982
-0.028915996 0.053578686 -0.11174528
-0.0609418 0.065970942 -0.11264721
-0.054373663 0.06491179 -0.11687073
-0.044625964 0.064140543 -0.11887375
-0.033429194 0.065002561 -0.11424722
-0.061173338 0.075771183 -0.11296999
-0.054195613 0.074713834 -0.11639291
-0.044312239 0.074169464 -0.11817878
-0.034654513 0.074447989 -0.11425973
-0.061696075 0.086272821 -0.1124663
-0.053091634 0.085108541 -0.11700093
-0.045368332 0.084955983 -0.11822868
-0.033748765 0.08559119 -0.11324041
-0.062262837 0.094851665 -0.11285311
-0.053966735 0.094918758 -0.11678284
-0.045139287 0.095951706 -0.11775751
-0.033986788 0.096265852 -0.11357688
-0.029556179 0.098766252 -0.11084495
-0.064011589 0.10515685 -0.11290652
-0.054657482 0.10628497 -0.11744998
-0.044546187 0.10606893 -0.11771167
-0.033345837 0.10513946 -0.1137552
-0.071179926 0.11959857 -0.11070036
-0.064601734 0.11646647 -0.11518165
-0.055472713 0.11392836 -0.11852797
-0.044504724 0.1163175 -0.11800657
-0.034197498 0.11459851 -0.11385732
-0.070277855 0.12351862 -0.11081842
-0.064540282 0.12485231 -0.11499751
-0.056344237 0.12387732 -0.11887279
-0.044781905 0.12562507 -0.11851829
-0.033095513 0.12506185 -0.11332537
-0.029267181 0.12729093 -0.11060899
-0.063977756 0.13446915 -0.1127206
-0.055402942 0.13521175 -0.11694594
-0.045002356 0.13565393 -0.11784603
-0.034306206 0.13508795 -0.11401592
-0.052068368 0.14282984 -0.11239847
-0.044425651 0.14318371 -0.11341009
-0.035778828 0.14250386 -0.11174516
-0.069054917 0.0086172447 -0.1041414
-0.064896286 0.015014226 -0.10511737
-0.015274511 0.014982427 -0.1052559
-0.065203145 0.025546033 -0.10752228
-0.059063971 0.024940621 -0.10267337
-0.020591654 0.026677437 -0.10930386
-0.017167935 0.024279242 -0.1035254
-0.061638918 0.032832284 -0.10833397
-0.058078893 0.03669709 -0.10494784
-0.021405211 0.0355017 -0.10652921
-0.019615836 0.033389464 -0.10212871
-0.060791284 0.046247691 -0.10794984
-0.056886099 0.046301305 -0.10305759
-0.023842081 0.046083853 -0.105211
-0.061226018 0.054926157 -0.10759325
-0.056584992 0.055290878 -0.10251969
-0.026399223 0.055015802 -0.10442837
-0.061900523 0.065717012 -0.1077297
-0.057409197 0.063137718 -0.10257405
-0.031340618 0.067882307 -0.1042617
-0.0276288 0.063823581 -0.10320492
-0.061521854 0.075243033 -0.10708629
-0.058864165 0.073795162 -0.10273913
-0.031660285 0.075895064 -0.10530394
-0.029506024 0.079347476 -0.10871927
-0.061777364 0.084897622 -0.10596484
-0.059549313 0.082598783 -0.1023261
-0.030939784 0.081382468 -0.10264696
-0.029059974 0.084993489 -0.10468199
-0.06131544 0.093957797 -0.1032806
-0.026590345 0.096000373 -0.10500216
-0.065127976 0.10546456 -0.10562769
-0.024732858 0.10546973 -0.10616258
-0.072303705 0.1163253 -0.10561173
-0.067531683 0.11224396 -0.10363674
-0.023713151 0.11517794 -0.1055001
-0.074964575 0.12538187 -0.10359512
-0.024633406 0.12514235 -0.10594313
-0.071907394 0.13358039 -0.1036539
-0.066958092 0.13774683 -0.10635853
-0.026399164 0.13653174 -0.10489132
-0.062117197 0.14274231 -0.10354563
-0.054561596 0.14465874 -0.10532019
-0.043951456 0.14620385 -0.1052281
-0.033759937 0.14499001 -0.10556114
-0.02848202 0.14171559 -0.10377388
-0.01112882 0.0067094052 -0.095739625
-0.06083877 0.011653638 -0.095701173
-0.059283603 0.017605659 -0.094894029
-0.014533309 0.016361358 -0.09313643
-0.057759173 0.02497975 -0.094307221
-0.016495219 0.024043372 -0.095222317
-0.055929877 0.036075268 -0.095158175
-0.019260326 0.035016786 -0.09526372
-0.053784855 0.044636931 -0.094464548
-0.020979086 0.044233821 -0.095134072
-0.02 0.040782724 -0.097002409
-0.05328919 0.05410083 -0.095156834
-0.024139693 0.056293957 -0.095728613
-0.055622 0.064829126 -0.095551446
-0.031073064 0.066164792 -0.094563611
-0.026911711 0.064031743 -0.094605953
-0.056216124 0.075164504 -0.094350561
-0.031438358 0.075706787 -0.096780747
-0.027594786 0.075674623 -0.091256343
-0.057117235 0.085126996 -0.094429262
-0.030576475 0.081481904 -0.09920612
-0.027002191 0.086744711 -0.095592633
-0.060522325 0.099199668 -0.099155597
-0.058588173 0.094582953 -0.095601641
-0.023838364 0.093759082 -0.094857536
-0.061570089 0.10679583 -0.097963028
-0.058828715 0.10410769 -0.09352266
-0.02103078 0.10579429 -0.09650775
-0.065256938 0.11651836 -0.095201105
-0.020599714 0.11454882 -0.094601944
-0.02 0.11492079 -0.096172176
-0.074386641 0.12502524 -0.095952302
-0.06890709 0.12020829 -0.092772745
-0.020991657 0.1258232 -0.095833257
-0.02 0.12157277 -0.092267282
-0.072785594 0.13530666 -0.094697312
-0.02289512 0.13404633 -0.095919482
-0.064335451 0.14315119 -0.094821654
-0.055995844 0.14649142 -0.093783639
-0.046457671 0.14804396 -0.094447233
-0.035824452 0.14682838 -0.094822407
-0.027150633 0.14259268 -0.095435925
-0.060524717 0.011264114 -0.084899254
-0.058444589 0.016136853 -0.083543688
-0.021424552 0.018426623 -0.080528155
-0.015884833 0.014044371 -0.085858054
-0.05631265 0.025439991 -0.084104009
-0.022249684 0.024456725 -0.082794718
-0.018652104 0.023889443 -0.088178702
-0.054094031 0.033446863 -0.085099824
-0.031669211 0.038383402 -0.080608994
-0.023645494 0.034850702 -0.084409945
-0.019830149 0.031841051 -0.089845151
-0.051259011 0.045024309 -0.085307501
-0.044449866 0.047105826 -0.081221238
-0.034602109 0.046437073 -0.081531294
-0.024345895 0.044190791 -0.084711559
-0.051920291 0.055350881 -0.088515222
-0.046218023 0.054660361 -0.083400041
-0.034733888 0.054414459 -0.0834722
-0.024964374 0.05391451 -0.084567107
-0.051568035 0.065450348 -0.084934793
-0.04458696 0.063370235 -0.082663007
-0.035681296 0.065582529 -0.083181426
-0.025968274 0.064719766 -0.083935373
-0.053059019 0.075731389 -0.084423386
-0.0420155 0.070247926 -0.080268398
-0.033402052 0.073746651 -0.085160099
-0.026337031 0.07456097 -0.085990258
-0.054927032 0.086405978 -0.086655341
-0.035639428 0.083198406 -0.080410607
-0.024967557 0.083868638 -0.084543951
-0.054990217 0.095103428 -0.085344225
-0.024183974 0.094956145 -0.0839862
-0.055962168 0.1051137 -0.083227329
-0.023077412 0.10557252 -0.085402422
-0.063232876 0.11678999 -0.084442519
-0.058734719 0.11191545 -0.086802006
-0.021310328 0.11543769 -0.085808054
-0.071589865 0.1253574 -0.087112211
-0.068811461 0.1242063 -0.083831169
-0.021133516 0.12517877 -0.084975474
-0.02 0.12327222 -0.089812092
-0.071390271 0.13423932 -0.087650724
-0.067671955 0.13571362 -0.083059952
-0.024191895 0.13671298 -0.084492534
-0.063471258 0.14271313 -0.086185679
-0.05595408 0.1451838 -0.083260812
-0.04470503 0.1474199 -0.084613949
-0.033896372 0.145842 -0.08504267
-0.028175412 0.14289056 -0.085405491
-0.058656722 0.0085711563 -0.070696659
-0.022530515 0.0087475535 -0.072117627
-0.060290612 0.01087306 -0.076999903
-0.056254845 0.016507497 -0.073851213
-0.034717955 0.017859904 -0.072820909
-0.024477301 0.015279215 -0.076060981
-0.019745193 0.012116492 -0.078155875
-0.053458448 0.024292877 -0.075080074
-0.044362307 0.026371706 -0.071918339
-0.034404971 0.025074292 -0.07651031
-0.027499625 0.022869041 -0.078344144
-0.050882004 0.03125174 -0.07782656
-0.045228805 0.036354288 -0.076509632
-0.036286648 0.035320833 -0.078112021
-0.04407404 0.042479917 -0.079436027
-0.030766794 0.068511218 -0.077991992
-0.050050326 0.073247194 -0.079960629
-0.044323649 0.07550887 -0.078268431
-0.032342378 0.075081937 -0.077978142
-0.029756866 0.076033093 -0.078243136
-0.051091257 0.085394792 -0.07853055
-0.044415798 0.085058659 -0.076843888
-0.033098597 0.085390843 -0.075789079
-0.028357783 0.086078227 -0.078326583
-0.051274899 0.094874837 -0.074128747
-0.044465087 0.095169127 -0.072816305
-0.034118831 0.095229842 -0.075093694
-0.027290476 0.094374977 -0.077803805
-0.052880812 0.106022 -0.074698277
-0.044955626 0.10444362 -0.071353182
-0.034365479 0.10415457 -0.072395675
-0.02677015 0.10387313 -0.077046894
-0.062677167 0.1166281 -0.077625968
-0.057105552 0.11415426 -0.073586605
-0.036443215 0.11112642 -0.070354417
-0.02632118 0.11604922 -0.075011678
-0.06477651 0.12482028 -0.077180907
-0.057604965 0.12481508 -0.072419383
-0.025242591 0.12594566 -0.074856885
-0.062531635 0.13575961 -0.07781902
-0.05614968 0.13511199 -0.072676212
-0.032539096 0.13796397 -0.071668349
-0.026968867 0.13586782 -0.076037779
-0.054202169 0.14275983 -0.07681419
-0.044465967 0.14376338 -0.073790647
-0.034987461 0.14362739 -0.076528333
-0.029587261 0.14161617 -0.07935147
-0.04417228 0.0074674604 -0.062745169
-0.033931319 0.0067785704 -0.064355634
-0.052019686 0.013750523 -0.068419166
-0.044422448 0.014276153 -0.067507073
-0.034183346 0.012218888 -0.068915501
-0.045703862 0.10599481 -0.069660269
-0.052185487 0.11685687 -0.069401331
-0.044936113 0.11627688 -0.068494074
-0.03507705 0.11578356 -0.068121701
-0.051294476 0.12320788 -0.06901177
-0.045922577 0.12600705 -0.067558661
-0.033185005 0.1250378 -0.067505985
-0.029635988 0.1260168 -0.069364011
-0.050999999 0.13133991 -0.069064036
-0.045078974 0.1359199 -0.067782141
-0.03567395 0.13430065 -0.067921586
-0.042432353 0.14048754 -0.069487542
