# .PCD v0.7 - Point Cloud Data file format
VERSION 0.7
FIELDS x y z rgb
SIZE 4 4 4 4
TYPE F F F F
COUNT 1 1 1 1
WIDTH 1275
HEIGHT 1
VIEWPOINT 0 0 0 1 0 0 0
POINTS 1275
DATA ascii
0.14989108 -0.041000001 -0.84800267 0
0.15295485 -0.040630586 -0.84393406 0
0.17851126 -0.041000001 -0.84814453 0
0.18639605 -0.040543776 -0.84871608 0
0.19429572 -0.040460851 -0.84895492 0
0.20593734 -0.040344536 -0.84568185 0
0.21057746 -0.040545359 -0.84345299 0
0.22911279 -0.040700924 -0.84474653 0
0.2335428 -0.040684242 -0.8471964 0
0.24277382 -0.041211985 -0.84550208 0
0.25204006 -0.045727238 -0.84027803 0
0.295481 -0.040575221 -0.84762114 0
0.30377007 -0.040999085 -0.84705162 0
0.31340018 -0.040826011 -0.84403104 0
0.34420976 -0.040513124 -0.8409605 0
0.35477257 -0.040357839 -0.84456843 0
0.36475152 -0.040627193 -0.84234899 0
0.37629312 -0.040699355 -0.84248585 0
0.38519946 -0.040662419 -0.8440758 0
0.39550871 -0.040709786 -0.84584439 0
0.40523314 -0.040484861 -0.84616166 0
0.4246996 -0.040742576 -0.84659904 0
0.43555033 -0.041788381 -0.8447448 0
0.44451216 -0.04395948 -0.84290427 0
0.45577335 -0.041796286 -0.84281039 0
0.46602774 -0.0428022 -0.84484869 0
0.47489136 -0.042109579 -0.84429789 0
0.48510346 -0.041815195 -0.8426038 0
0.49451292 -0.041562643 -0.84256053 0
0.50844246 -0.04214938 -0.84786505 0
0.5160442 -0.043702498 -0.84677893 0
0.52584255 -0.045456801 -0.84629345 0
0.53902721 -0.045170806 -0.84438145 0
0.54566991 -0.043284412 -0.84625292 0
0.55375397 -0.042114835 -0.84776551 0
0.56517774 -0.045525722 -0.8469578 0
0.57306129 -0.044354152 -0.84491134 0
0.58493125 -0.044416163 -0.8432132 0
0.59615618 -0.044124708 -0.84284848 0
0.60388643 -0.044988684 -0.84246075 0
0.61894768 -0.041000001 -0.84777528 0
0.62586749 -0.041607376 -0.84673089 0
0.63463545 -0.041644089 -0.84446883 0
0.64554703 -0.042557042 -0.84355807 0
0.65475887 -0.043121792 -0.8458162 0
0.6658358 -0.041862808 -0.8467598 0
0.67401248 -0.043712698 -0.84498501 0
0.68423504 -0.043459442 -0.84376651 0
0.69551247 -0.0443759 -0.84467447 0
0.70445973 -0.045871455 -0.84624851 0
0.71357012 -0.04985413 -0.84714592 0
0.75887346 -0.040880587 -0.84304959 0
0.7620495 -0.040830325 -0.84332293 0
0.7750566 -0.044788186 -0.84747827 0
0.78451115 -0.044949856 -0.84575289 0
0.79480636 -0.044513643 -0.84617949 0
0.80352497 -0.044442594 -0.84339213 0
0.81507844 -0.044767156 -0.84310532 0
0.82680261 -0.04602677 -0.84418398 0
0.83091778 -0.045359015 -0.84176177 0
0.84395832 -0.046139333 -0.84254622 0
-0.86418617 -0.035386611 -0.84329993 0
-0.85511392 -0.034380428 -0.84244204 0
-0.83580136 -0.033503763 -0.84551883 0
-0.34093365 -0.039959453 -0.84286362 0
-0.33339953 -0.038931817 -0.8449381 0
-0.32471216 -0.039483178 -0.84479964 0
-0.31515789 -0.039326143 -0.84348547 0
-0.28005803 -0.039811604 -0.8455019 0
-0.27628377 -0.039670832 -0.847444 0
-0.24210247 -0.039811008 -0.84788173 0
-0.23745167 -0.039509192 -0.84921885 0
-0.22702554 -0.039854836 -0.84834206 0
0.23669244 -0.039348032 -0.84345227 0
0.24207535 -0.039191615 -0.84347904 0
0.29802412 -0.038747586 -0.84425128 0
0.30612943 -0.038905453 -0.84204835 0
0.34800094 -0.039504211 -0.84315687 0
0.35441399 -0.039777335 -0.84194744 0
0.38775843 -0.039121464 -0.84684229 0
0.39616176 -0.039498847 -0.84559375 0
0.40561092 -0.039400704 -0.84268916 0
0.41501167 -0.038929109 -0.84318972 0
0.42145681 -0.03998271 -0.84054321 0
0.44486928 -0.039167758 -0.84781379 0
0.45342207 -0.039043497 -0.84703988 0
0.46649921 -0.039449975 -0.8480792 0
0.4710651 -0.039788447 -0.84499633 0
0.49375811 -0.039999999 -0.84047413 0
0.54333299 -0.039526802 -0.84937459 0
0.55247068 -0.039999999 -0.84856594 0
0.63707995 -0.039768007 -0.8465094 0
0.64472306 -0.039942611 -0.84035653 0
0.65442282 -0.039702784 -0.84228319 0
0.66445458 -0.039262466 -0.84222525 0
0.69418079 -0.036839169 -0.84261799 0
0.70758885 -0.036264095 -0.84249437 0
0.7104724 -0.036220759 -0.84209013 0
0.72609913 -0.036066797 -0.8421402 0
0.73300916 -0.036154702 -0.84258753 0
0.7554813 -0.03644618 -0.84282982 0
0.76365232 -0.037083499 -0.84310144 0
0.77362382 -0.036236607 -0.84299994 0
1.1647161 -0.035999998 -0.84799999 0
1.328774 -0.030347081 -0.84103853 0
1.3453487 -0.030718163 -0.84355599 0
1.3533965 -0.030666482 -0.84372431 0
1.3631951 -0.030424386 -0.84357119 0
1.3741285 -0.030144021 -0.84176558 0
1.3860925 -0.030443616 -0.84525776 0
1.3930764 -0.030265234 -0.84906089 0
1.4053086 -0.030681608 -0.84398633 0
1.4149371 -0.031472377 -0.84460181 0
1.4250327 -0.032110747 -0.84456658 0
1.434815 -0.031541388 -0.84516609 0
1.4442989 -0.03302177 -0.84714973 0
1.4529297 -0.031426329 -0.84603161 0
1.4672713 -0.031691462 -0.84972864 0
-0.85405231 -0.028551292 -0.84146106 0
-0.83252871 -0.020059885 -0.84035236 0
-0.82459503 -0.021147097 -0.84430408 0
-0.81554669 -0.022826467 -0.84433091 0
-0.80536491 -0.02243706 -0.84548646 0
-0.79562527 -0.021902123 -0.84633785 0
-0.78235871 -0.021298895 -0.84505016 0
-0.77617335 -0.0220231 -0.84574223 0
-0.76509571 -0.021977948 -0.844917 0
-0.75472152 -0.020987766 -0.84360647 0
-0.74966145 -0.020800212 -0.84306103 0
-0.73238277 -0.020997042 -0.84413588 0
-0.72437108 -0.021261889 -0.84661019 0
-0.71534348 -0.021041173 -0.84669083 0
-0.70544505 -0.021767233 -0.845065 0
-0.69551909 -0.021328067 -0.8454752 0
-0.68233413 -0.020994468 -0.84473938 0
-0.67514348 -0.021615336 -0.84682959 0
-0.66576254 -0.022769039 -0.84534329 0
-0.6555115 -0.022808807 -0.84329987 0
-0.64648062 -0.022296175 -0.84541804 0
-0.63457704 -0.020997843 -0.84456193 0
-0.62833267 -0.020310773 -0.84566981 0
-0.61129546 -0.020672686 -0.84766632 0
-0.60886151 -0.020411853 -0.84803784 0
1.1345193 -0.020474926 -0.84359121 0
1.1460123 -0.020612661 -0.84318477 0
1.1537474 -0.020459153 -0.84398532 0
1.1661996 -0.020897223 -0.84413445 0
1.1755103 -0.020905806 -0.84546393 0
1.185738 -0.021153638 -0.84594369 0
1.1946155 -0.02119787 -0.84486437 0
1.2049973 -0.021433469 -0.84580392 0
1.215346 -0.021668691 -0.84536415 0
1.2254454 -0.021193309 -0.84658146 0
1.2360065 -0.02153063 -0.84460348 0
1.245171 -0.021302799 -0.84450006 0
1.2559677 -0.021703351 -0.84549725 0
1.2646475 -0.021820748 -0.84451526 0
1.2757328 -0.023726791 -0.84591734 0
1.2849655 -0.024662092 -0.84356338 0
1.2955103 -0.025881752 -0.84500092 0
1.3033844 -0.027357649 -0.84599018 0
1.3153602 -0.028837334 -0.84496248 0
1.3254002 -0.02940822 -0.84413183 0
1.3345898 -0.029666092 -0.84588957 0
1.3437535 -0.029401699 -0.84741098 0
1.3573253 -0.030000001 -0.84755254 0
1.3650485 -0.029799948 -0.84588802 0
1.374652 -0.029469127 -0.84555495 0
1.3837266 -0.02992264 -0.84547263 0
1.3944284 -0.029600779 -0.8443355 0
1.4549563 -0.029605296 -0.84809303 0
-0.83330375 -0.019775551 -0.84635878 0
-0.82772982 -0.02 -0.84698486 0
-0.75088227 -0.019976459 -0.84869301 0
-0.74413621 -0.01902945 -0.8448379 0
-0.73964775 -0.018826785 -0.84657049 0
-0.72377443 -0.019706601 -0.84260291 0
-0.71509135 -0.019937256 -0.84134865 0
-0.69084024 -0.019968048 -0.84488755 0
-0.68703771 -0.019721739 -0.843629 0
-0.6221475 -0.019659149 -0.84453052 0
-0.61606872 -0.019446947 -0.84402621 0
-0.60614228 -0.01914894 -0.84504533 0
-0.59479356 -0.018585907 -0.84440786 0
-0.58436 -0.018294804 -0.84423238 0
-0.57484996 -0.017954329 -0.8446998 0
-0.56431508 -0.01753035 -0.84593201 0
-0.55462825 -0.017724292 -0.84481621 0
-0.54512405 -0.017178629 -0.84563094 0
-0.5347625 -0.017555069 -0.84420675 0
-0.5251047 -0.017962614 -0.84589511 0
-0.51610643 -0.017827861 -0.84382915 0
-0.50569409 -0.017999997 -0.84506983 0
-0.49443197 -0.01798497 -0.84524786 0
-0.48561952 -0.01746108 -0.84542137 0
-0.47632259 -0.017092576 -0.84649819 0
-0.46512586 -0.017000003 -0.84315598 0
-0.45463187 -0.016999727 -0.84523195 0
-0.44590348 -0.01684938 -0.8441596 0
-0.43538985 -0.017000003 -0.84506035 0
-0.42542773 -0.017000003 -0.84534103 0
-0.41448694 -0.016851323 -0.84476376 0
-0.40510988 -0.016962325 -0.8460139 0
-0.39449933 -0.016413793 -0.8436659 0
-0.38530219 -0.016000001 -0.8436017 0
-0.37519765 -0.016000001 -0.84533709 0
-0.36547542 -0.01581635 -0.84562784 0
-0.35365951 -0.015054638 -0.84436584 0
-0.34499958 -0.015000001 -0.84443825 0
-0.33608869 -0.015 -0.84561867 0
-0.32521108 -0.014760401 -0.84588605 0
-0.31484571 -0.014267699 -0.84408855 0
-0.30640581 -0.014 -0.84586006 0
-0.29611132 -0.014 -0.84484327 0
-0.28588387 -0.014 -0.844823 0
-0.27674598 -0.014 -0.845954 0
-0.26455843 -0.013989244 -0.84539813 0
-0.25554094 -0.013458259 -0.84411788 0
-0.24521932 -0.013044903 -0.8467887 0
-0.2352543 -0.012999999 -0.84368968 0
-0.22566433 -0.012999998 -0.84601605 0
-0.21497193 -0.012999998 -0.84403086 0
-0.20424807 -0.012999998 -0.84432203 0
-0.19651985 -0.012999998 -0.84390187 0
-0.18678363 -0.012999999 -0.84581643 0
-0.17511243 -0.012999998 -0.84433693 0
-0.16520587 -0.012999998 -0.84310263 0
-0.15356173 -0.012994996 -0.84474158 0
-0.14330196 -0.012615008 -0.84538877 0
-0.13403723 -0.012692331 -0.84434688 0
-0.12504068 -0.012324699 -0.8454873 0
-0.11641899 -0.01199065 -0.84458476 0
-0.10530399 -0.01199151 -0.84558314 0
-0.096148327 -0.011953481 -0.84581631 0
-0.086421326 -0.011892581 -0.844567 0
-0.075694203 -0.011908659 -0.84504914 0
-0.065908208 -0.011975566 -0.84423119 0
-0.055690177 -0.011953007 -0.84558952 0
-0.04489103 -0.012000001 -0.84656024 0
-0.033476297 -0.011896648 -0.84469306 0
-0.024889495 -0.01184532 -0.84549594 0
-0.012942887 -0.011668977 -0.84602803 0
-0.0040691779 -0.011614216 -0.84484184 0
0.0042555551 -0.011803153 -0.84395075 0
0.015988836 -0.011449802 -0.84333187 0
0.025124369 -0.011440425 -0.84558547 0
0.034949426 -0.011264845 -0.84472257 0
0.046412706 -0.01124639 -0.8446489 0
0.055780478 -0.011252986 -0.84376162 0
0.063248433 -0.011086456 -0.84434557 0
0.07481423 -0.011132698 -0.8441292 0
0.085015945 -0.011608676 -0.84460974 0
0.095389932 -0.011228817 -0.84583336 0
0.10652927 -0.011107927 -0.84534198 0
0.11586158 -0.011091309 -0.84453934 0
0.12506214 -0.01160761 -0.84803885 0
0.13642056 -0.011 -0.84504813 0
0.14523759 -0.011000001 -0.84443235 0
0.15460473 -0.011000236 -0.84524906 0
0.16445476 -0.011018401 -0.8458342 0
0.17505209 -0.011020039 -0.8446731 0
0.18509129 -0.011030767 -0.84571421 0
0.1949556 -0.011 -0.84468573 0
0.2053832 -0.011218801 -0.84418708 0
0.21434771 -0.011637218 -0.84606773 0
0.22529307 -0.011039264 -0.8441667 0
0.2348185 -0.011 -0.84395313 0
0.24499714 -0.011386693 -0.84512436 0
0.25356355 -0.011103802 -0.84469253 0
0.26495934 -0.011 -0.84453344 0
0.27504745 -0.011068354 -0.84378779 0
0.28577566 -0.011052042 -0.84672487 0
0.29475689 -0.011018919 -0.8460077 0
0.30506164 -0.011276589 -0.84441996 0
0.31523314 -0.011707908 -0.84496564 0
0.3245621 -0.011306071 -0.8448019 0
0.33611065 -0.011843923 -0.84494483 0
0.34459913 -0.011917979 -0.8447423 0
0.35464311 -0.012000001 -0.84516943 0
0.36521882 -0.012000001 -0.84521717 0
0.37607571 -0.012000001 -0.84447664 0
0.38547012 -0.012001791 -0.84546107 0
0.39517322 -0.01214142 -0.84438652 0
0.40381703 -0.012248912 -0.8445189 0
0.41475531 -0.012617333 -0.84529686 0
0.42496541 -0.012896585 -0.84475476 0
0.4353126 -0.012999999 -0.84555697 0
0.44504187 -0.012999998 -0.84423554 0
0.45505962 -0.012999999 -0.84443903 0
0.46484387 -0.013045858 -0.84479278 0
0.47453511 -0.013235661 -0.84538972 0
0.48501006 -0.013671285 -0.84435117 0
0.49523452 -0.013840741 -0.84645009 0
0.50428808 -0.01373814 -0.84527737 0
0.51424593 -0.014 -0.84571946 0
0.52540827 -0.014 -0.84596193 0
0.53569072 -0.014 -0.84409797 0
0.54594368 -0.014206974 -0.84544504 0
0.55464953 -0.014342363 -0.84368885 0
0.56389439 -0.014438521 -0.84469241 0
0.57396507 -0.014673521 -0.84521538 0
0.5857777 -0.014740521 -0.84443337 0
0.5959965 -0.014913705 -0.84464902 0
0.60437471 -0.014878517 -0.84515321 0
0.61482018 -0.014896025 -0.84525633 0
0.62421501 -0.014910772 -0.84368068 0
0.63635379 -0.015 -0.84496653 0
0.64559883 -0.015 -0.84387457 0
0.65484518 -0.014999999 -0.84540468 0
0.66552305 -0.015000001 -0.84492755 0
0.67521363 -0.015 -0.84662938 0
0.68497974 -0.015000001 -0.84699535 0
0.69585025 -0.014686591 -0.84495842 0
0.70556325 -0.014961324 -0.84305763 0
0.71508974 -0.014415769 -0.84364051 0
0.72588921 -0.01435136 -0.84397942 0
0.7349028 -0.014895301 -0.84604651 0
0.74584508 -0.014941065 -0.84400648 0
0.75566918 -0.014727581 -0.84570014 0
0.76519728 -0.014876087 -0.84441775 0
0.77491903 -0.015043488 -0.84590924 0
0.78451949 -0.01498891 -0.84496135 0
0.79476386 -0.014763094 -0.84455645 0
0.80368465 -0.015 -0.84572828 0
0.81403089 -0.015030399 -0.8459909 0
0.82441664 -0.015321794 -0.84484416 0
0.83521587 -0.015135855 -0.84470034 0
0.84510601 -0.015302033 -0.84503436 0
0.85515594 -0.015180601 -0.84517592 0
0.86540139 -0.015895002 -0.84455127 0
0.87622172 -0.01593337 -0.84590364 0
0.88549852 -0.015898297 -0.84611291 0
0.89514148 -0.016042866 -0.84520572 0
0.9049502 -0.016652405 -0.84514219 0
0.91568887 -0.016086545 -0.84449929 0
0.92374158 -0.016077252 -0.84431338 0
0.9343034 -0.016446827 -0.84455872 0
0.943905 -0.016570048 -0.84500462 0
0.95438737 -0.017000003 -0.84437615 0
0.96538901 -0.016975818 -0.84591848 0
0.975425 -0.017219311 -0.84606171 0
0.98605907 -0.017832493 -0.84526241 0
0.99482322 -0.017995305 -0.8433274 0
1.0052093 -0.018102037 -0.84584254 0
1.0142206 -0.01816323 -0.84528482 0
1.0260359 -0.017999997 -0.8443948 0
1.0353343 -0.018185377 -0.84638977 0
1.0436813 -0.018701995 -0.84611446 0
1.0544518 -0.0188221 -0.84501874 0
1.0669153 -0.018985972 -0.84540796 0
1.0757822 -0.018713944 -0.84475607 0
1.0847477 -0.018902071 -0.84611386 0
1.0949415 -0.018721009 -0.8451941 0
1.1065944 -0.01899923 -0.84636849 0
1.1143261 -0.019449195 -0.84432697 0
1.1236486 -0.019817621 -0.8444584 0
1.1372178 -0.019716937 -0.84807223 0
1.1424601 -0.01994196 -0.84603673 0
1.1550483 -0.019672891 -0.84436899 0
1.1615155 -0.02 -0.84631634 0
1.1784469 -0.02 -0.84916371 0
-0.37315473 -0.052709315 -0.83441257 0
-0.36581269 -0.052773282 -0.83834654 0
-0.34579086 -0.050893586 -0.83250028 0
-0.33626989 -0.0507004 -0.8362028 0
-0.32203907 -0.050271705 -0.83100188 0
-0.3170734 -0.050685868 -0.83279198 0
0.72550803 -0.050656442 -0.83214283 0
0.73014975 -0.050241772 -0.83499503 0
0.88790178 -0.050000004 -0.83681422 0
-0.36185983 -0.043904141 -0.83280951 0
-0.35343328 -0.042100832 -0.83392215 0
-0.34904349 -0.041143693 -0.83607316 0
-0.3346839 -0.041555531 -0.83415043 0
-0.32379821 -0.043567859 -0.83761871 0
-0.31508425 -0.044765498 -0.83609074 0
-0.30608141 -0.044515643 -0.83635795 0
-0.29592317 -0.04076793 -0.83607215 0
-0.28540048 -0.041726943 -0.83751106 0
-0.27588642 -0.042557374 -0.83602554 0
-0.26443273 -0.042756427 -0.83470279 0
-0.25641081 -0.042977773 -0.83546317 0
-0.24553423 -0.042883135 -0.8354587 0
-0.23593412 -0.041703556 -0.83631015 0
-0.22696424 -0.040696424 -0.83329314 0
0.21810302 -0.040323079 -0.83829653 0
0.22445856 -0.04048726 -0.83840644 0
0.23759662 -0.040577978 -0.8363108 0
0.24717939 -0.042055491 -0.83461839 0
0.25433302 -0.040812492 -0.83840209 0
0.26404229 -0.041000001 -0.838 0
0.27710378 -0.040152118 -0.83212686 0
0.28475046 -0.040500712 -0.83294201 0
0.29386479 -0.040657509 -0.833767 0
0.30541053 -0.040734082 -0.83790302 0
0.34540263 -0.040526208 -0.83734155 0
0.35291457 -0.040505871 -0.83783752 0
0.36637148 -0.040773626 -0.83759314 0
0.37206012 -0.04089741 -0.83860904 0
0.38929209 -0.045999996 -0.83366084 0
0.39838922 -0.040512599 -0.83859062 0
0.40104979 -0.040112689 -0.83918816 0
0.41760522 -0.040863089 -0.83387542 0
0.42542586 -0.040621903 -0.83554566 0
0.43593043 -0.041646447 -0.83664662 0
0.44520783 -0.041209977 -0.83462131 0
0.45405331 -0.042812817 -0.83692741 0
0.46404076 -0.040949106 -0.83348888 0
0.47498783 -0.042041052 -0.83389163 0
0.48230872 -0.043378603 -0.83485222 0
0.49494523 -0.041225191 -0.83816117 0
0.5074625 -0.04203571 -0.83751786 0
0.51684934 -0.043199606 -0.83583373 0
0.52377588 -0.042192314 -0.83655185 0
0.53523433 -0.040659513 -0.83509892 0
0.54450911 -0.040333591 -0.83312434 0
0.55570304 -0.040709265 -0.8325361 0
0.56485569 -0.041077029 -0.832968 0
0.57739902 -0.041672636 -0.83463281 0
0.58556014 -0.042180728 -0.83406872 0
0.59427202 -0.043218017 -0.83685082 0
0.60365576 -0.044478055 -0.83392143 0
0.61716682 -0.045530383 -0.83442807 0
0.621494 -0.045327019 -0.83133078 0
0.63828915 -0.042053349 -0.83830076 0
0.64543504 -0.04339271 -0.8358773 0
0.65371448 -0.043241911 -0.8373037 0
0.66619873 -0.043425359 -0.83548295 0
0.67599142 -0.041695125 -0.834243 0
0.68519491 -0.043613549 -0.83286345 0
0.69607472 -0.043910142 -0.83516163 0
0.70530641 -0.04250364 -0.83468348 0
0.71583509 -0.046164799 -0.83350396 0
0.7247963 -0.045876045 -0.83312422 0
0.73387611 -0.044014376 -0.8341608 0
0.74329817 -0.043756846 -0.83285755 0
0.75642532 -0.045794893 -0.83318985 0
0.76841849 -0.04133385 -0.83348608 0
0.77063799 -0.040525027 -0.83216524 0
0.78901798 -0.045989174 -0.838 0
0.79396117 -0.043960586 -0.83790636 0
0.80551082 -0.045056231 -0.8353284 0
0.81654602 -0.044353906 -0.83478969 0
0.82603699 -0.045043252 -0.83738327 0
0.83595538 -0.044861153 -0.83563817 0
0.84454125 -0.044848729 -0.83350295 0
0.85638636 -0.044925593 -0.83307636 0
0.86613679 -0.045816679 -0.83262038 0
0.87367648 -0.046846088 -0.83282357 0
0.8838799 -0.049198769 -0.83372808 0
0.8915844 -0.049777113 -0.83603466 0
0.99400002 -0.041000001 -0.83800006 0
-0.87078333 -0.036361277 -0.83554792 0
-0.86412722 -0.035449516 -0.83454794 0
-0.85481519 -0.033949986 -0.83501083 0
-0.84894699 -0.036086962 -0.83341122 0
-0.83618748 -0.031359617 -0.83239901 0
-0.81614375 -0.031207411 -0.83305675 0
-0.73395032 -0.030959476 -0.83756912 0
-0.34410435 -0.039179824 -0.83572167 0
-0.33482739 -0.038869344 -0.83549023 0
-0.32515743 -0.039253179 -0.83426589 0
-0.31480911 -0.039468255 -0.83498901 0
-0.30591926 -0.038944609 -0.8317976 0
-0.29650939 -0.039757218 -0.83324146 0
-0.28464898 -0.039855894 -0.83260268 0
-0.27494249 -0.039685972 -0.83400118 0
-0.2653392 -0.039999999 -0.83638215 0
-0.25096098 -0.037167858 -0.83278817 0
-0.24693699 -0.038654082 -0.83523732 0
0.22640303 -0.038918354 -0.83487117 0
0.23346815 -0.039150838 -0.83417702 0
0.24492258 -0.039589111 -0.83079964 0
0.25416186 -0.039378308 -0.83346426 0
0.27930102 -0.039994255 -0.83131415 0
0.34867436 -0.039927896 -0.83836049 0
0.35908914 -0.039938152 -0.8366195 0
0.36268228 -0.039951704 -0.8396678 0
0.42252722 -0.039585877 -0.83526868 0
0.43416604 -0.039611127 -0.83287495 0
0.44766593 -0.039202467 -0.83033913 0
0.45484614 -0.039163224 -0.83149743 0
0.46871194 -0.039944269 -0.83243328 0
0.49656194 -0.039999999 -0.83919477 0
0.52802056 -0.039551884 -0.8377437 0
0.54690486 -0.039999999 -0.83038306 0
0.55161315 -0.039999999 -0.83285344 0
0.64521486 -0.039293475 -0.83818507 0
0.65330601 -0.039768122 -0.83879757 0
0.667678 -0.039834216 -0.83803535 0
0.67437553 -0.038079374 -0.83804572 0
0.68526602 -0.03819751 -0.83560944 0
0.69520962 -0.03866389 -0.83521748 0
0.70438981 -0.037250191 -0.83687764 0
0.71513331 -0.037384763 -0.83623898 0
0.72537774 -0.036970437 -0.83606601 0
0.73515421 -0.037478473 -0.8363958 0
0.75606471 -0.036032509 -0.83333319 0
0.76582026 -0.036562257 -0.83357966 0
0.77330989 -0.036328968 -0.83264846 0
1.2858046 -0.031031867 -0.83278948 0
1.296347 -0.032071628 -0.83345956 0
1.3053967 -0.031326357 -0.83359814 0
1.315298 -0.031111389 -0.83220637 0
1.3260465 -0.030563336 -0.83375794 0
1.3364878 -0.030843675 -0.83345169 0
1.3447217 -0.030903026 -0.83334148 0
1.355523 -0.030861206 -0.83733803 0
1.366001 -0.030739434 -0.83637625 0
1.3767251 -0.030844534 -0.83365202 0
1.385465 -0.031770445 -0.83782613 0
1.392693 -0.030780667 -0.83790517 0
1.4046586 -0.030341519 -0.83436978 0
1.4194961 -0.030580664 -0.83984125 0
1.425378 -0.030378709 -0.83734769 0
1.434562 -0.030832831 -0.83421242 0
1.4449412 -0.03106044 -0.83483303 0
1.4533169 -0.031913288 -0.83450699 0
-0.87008679 -0.028692542 -0.83271086 0
-0.86442584 -0.029008353 -0.831137 0
-0.85479993 -0.027334549 -0.83362538 0
-0.84619802 -0.024936283 -0.83362955 0
-0.83399445 -0.021963293 -0.83419573 0
-0.82321161 -0.022878811 -0.83531809 0
-0.81486702 -0.026945906 -0.83477253 0
-0.80529791 -0.024073439 -0.83366072 0
-0.79519606 -0.02314076 -0.83477175 0
-0.78485703 -0.022317208 -0.83371496 0
-0.77464628 -0.025716186 -0.83500993 0
-0.76437163 -0.024828149 -0.83557618 0
-0.75518626 -0.021642085 -0.83368671 0
-0.74463755 -0.020851091 -0.83361733 0
-0.73621649 -0.025751425 -0.83459175 0
-0.7215755 -0.025909225 -0.83331281 0
-0.71409947 -0.024899537 -0.83440715 0
-0.70525455 -0.023435876 -0.83469164 0
-0.69323057 -0.024166234 -0.83596677 0
-0.68328339 -0.021122608 -0.83496922 0
-0.67404383 -0.023853844 -0.83390969 0
-0.66510993 -0.023976071 -0.83419919 0
-0.65539467 -0.022757363 -0.83542585 0
-0.64457852 -0.02140725 -0.83417183 0
-0.63588446 -0.020767907 -0.83515644 0
-0.62706876 -0.020647239 -0.83649099 0
-0.61251891 -0.020253183 -0.83643615 0
1.1168529 -0.020023681 -0.83002883 0
1.1362801 -0.020431411 -0.83816856 0
1.1437582 -0.020842697 -0.83843023 0
1.1550697 -0.020679189 -0.83640581 0
1.1658391 -0.021043215 -0.83639961 0
1.1758943 -0.021077879 -0.83439064 0
1.1853927 -0.020960573 -0.83502501 0
1.1948528 -0.021144474 -0.83506995 0
1.2053292 -0.021950006 -0.83479327 0
1.2146689 -0.021220274 -0.8336035 0
1.226114 -0.02148046 -0.83366078 0
1.2367587 -0.021734532 -0.83439928 0
1.2450777 -0.022700265 -0.83451521 0
1.2553967 -0.021574013 -0.83592755 0
1.2651149 -0.021953607 -0.83580971 0
1.2750895 -0.023217887 -0.83537465 0
1.2867322 -0.026287125 -0.83458751 0
1.2934221 -0.026603399 -0.83506453 0
1.3036976 -0.029146664 -0.8379088 0
1.3130527 -0.029744731 -0.83629924 0
1.3245271 -0.029873723 -0.83705169 0
1.3369079 -0.029859805 -0.83756542 0
1.3475865 -0.030000001 -0.83718717 0
1.3548429 -0.029523268 -0.83300322 0
1.3609904 -0.02903235 -0.8326602 0
1.3761082 -0.028826803 -0.83477652 0
1.3845302 -0.029285932 -0.83215791 0
1.3958402 -0.029190816 -0.83300346 0
1.4082733 -0.029493297 -0.83499068 0
1.4146481 -0.029431418 -0.83396453 0
1.4245051 -0.029796897 -0.83402324 0
1.4446107 -0.029999999 -0.83288682 0
-0.84099579 -0.018709349 -0.83431906 0
-0.83692479 -0.019019423 -0.83591986 0
-0.82284129 -0.019758077 -0.83538926 0
-0.74787259 -0.019764509 -0.83917737 0
-0.7337516 -0.019885853 -0.83522207 0
-0.72474498 -0.019465664 -0.83593816 0
-0.71723032 -0.019889396 -0.83236915 0
-0.62134063 -0.019326031 -0.83264709 0
-0.61444592 -0.019665601 -0.83313906 0
-0.6048035 -0.019414596 -0.83437651 0
-0.59535849 -0.018559998 -0.83588439 0
-0.58556259 -0.017999999 -0.83441001 0
-0.57409364 -0.017497243 -0.83516848 0
-0.56417698 -0.016866215 -0.83556837 0
-0.55441809 -0.016785277 -0.83568335 0
-0.54305714 -0.01626263 -0.8336851 0
-0.536268 -0.016700659 -0.83579004 0
-0.52367544 -0.01738191 -0.83477622 0
-0.51383555 -0.01758475 -0.83427972 0
-0.50467962 -0.017748332 -0.83651316 0
-0.49586889 -0.017412441 -0.83472157 0
-0.48548055 -0.017451148 -0.83563602 0
-0.47413445 -0.016977312 -0.8361569 0
-0.46482506 -0.017000003 -0.83497149 0
-0.45408174 -0.016976874 -0.83551317 0
-0.44375965 -0.016947554 -0.83443213 0
-0.4350467 -0.016703663 -0.83473182 0
-0.42496729 -0.016223267 -0.83456314 0
-0.41619986 -0.016017621 -0.83324683 0
-0.40660125 -0.016181815 -0.83551764 0
-0.39429328 -0.016082231 -0.8346926 0
-0.38585678 -0.016000001 -0.83460081 0
-0.37603682 -0.016000001 -0.83550769 0
-0.36493602 -0.015163737 -0.83441406 0
-0.35653275 -0.015 -0.83462375 0
-0.34464961 -0.014999999 -0.83539099 0
-0.33582178 -0.014949471 -0.83460593 0
-0.32641053 -0.014515067 -0.83480525 0
-0.31579334 -0.014 -0.83335674 0
-0.30414101 -0.014 -0.83540606 0
-0.29351661 -0.014 -0.83584672 0
-0.28372282 -0.014 -0.83342117 0
-0.27534279 -0.013876582 -0.83577859 0
-0.26541108 -0.013834573 -0.83539641 0
-0.25440753 -0.013379817 -0.83547521 0
-0.24468704 -0.012999997 -0.83535773 0
-0.23523894 -0.012999998 -0.8349418 0
-0.22386208 -0.012999998 -0.83547896 0
-0.21516538 -0.012999998 -0.83448523 0
-0.20556836 -0.012999999 -0.83415109 0
-0.19582322 -0.012999998 -0.8345167 0
-0.18532559 -0.012999998 -0.83575934 0
-0.17584331 -0.013 -0.83422178 0
-0.16580079 -0.012999999 -0.83432102 0
-0.15470029 -0.0123895 -0.83445281 0
-0.14559488 -0.012148651 -0.83444095 0
-0.13651238 -0.012000001 -0.83474529 0
-0.12627776 -0.011902638 -0.83576196 0
-0.11456641 -0.011917204 -0.83565897 0
-0.10489712 -0.01193917 -0.83583343 0
-0.095536552 -0.011675312 -0.83430851 0
-0.084848598 -0.011572965 -0.83515215 0
-0.074587427 -0.011394289 -0.83494592 0
-0.064154118 -0.011199859 -0.83479619 0
-0.055911146 -0.011245948 -0.83393842 0
-0.044708263 -0.011441537 -0.83573973 0
-0.03449811 -0.011355053 -0.83608425 0
-0.025407428 -0.011361821 -0.83363312 0
-0.014625166 -0.011291414 -0.8349607 0
-0.0048779943 -0.011049733 -0.83419561 0
0.0046530515 -0.011026501 -0.83479851 0
0.014660497 -0.011061348 -0.83514863 0
0.025459049 -0.011011817 -0.83338636 0
0.034063078 -0.011 -0.83487344 0
0.045420427 -0.011000003 -0.8345201 0
0.054931879 -0.011000001 -0.83428544 0
0.065895155 -0.011000002 -0.83464825 0
0.074850045 -0.011000002 -0.83559084 0
0.083876073 -0.011025717 -0.83597004 0
0.095653415 -0.011059985 -0.83528113 0
0.10432347 -0.011193355 -0.83560246 0
0.11559805 -0.011135538 -0.83412433 0
0.12555377 -0.011288317 -0.83634847 0
0.13457365 -0.011 -0.835482 0
0.14432971 -0.011000002 -0.83597821 0
0.15477778 -0.011 -0.83536392 0
0.16496612 -0.011000003 -0.834584 0
0.17468017 -0.011000002 -0.83613032 0
0.18523182 -0.011 -0.83537853 0
0.19519866 -0.010961708 -0.83453625 0
0.20632477 -0.011 -0.83516085 0
0.2147565 -0.011 -0.83539528 0
0.22452535 -0.011 -0.83495474 0
0.2351265 -0.011 -0.83542192 0
0.24484479 -0.011 -0.83586472 0
0.25480819 -0.011000002 -0.83668369 0
0.26603118 -0.011 -0.83384579 0
0.27550969 -0.01106852 -0.83312064 0
0.28545547 -0.011050669 -0.83373231 0
0.29548135 -0.011 -0.83549517 0
0.30450499 -0.011000002 -0.8360123 0
0.31379727 -0.011032684 -0.83624691 0
0.32453659 -0.011188009 -0.83325535 0
0.33357534 -0.011029265 -0.8341589 0
0.34586105 -0.011173278 -0.8351509 0
0.35523421 -0.011468977 -0.83547527 0
0.36397582 -0.011848983 -0.83532053 0
0.3751469 -0.012000001 -0.83534348 0
0.38628671 -0.012000001 -0.83476341 0
0.394207 -0.012000001 -0.83427244 0
0.40456784 -0.011999999 -0.83326912 0
0.4151918 -0.012 -0.83564806 0
0.42639589 -0.012228911 -0.8349874 0
0.43597108 -0.012652095 -0.83523822 0
0.4462781 -0.012926552 -0.83399707 0
0.45480633 -0.012999998 -0.83592606 0
0.46492589 -0.012999999 -0.83299583 0
0.4742136 -0.013156098 -0.83488333 0
0.48513046 -0.013400639 -0.83496696 0
0.49501845 -0.013938294 -0.835302 0
0.50497937 -0.013786329 -0.83479595 0
0.51494682 -0.014 -0.83531302 0
0.52399224 -0.014 -0.83580846 0
0.53383511 -0.014 -0.83533144 0
0.54466724 -0.014 -0.83457983 0
0.55575973 -0.014 -0.83389342 0
0.56570292 -0.014 -0.83485103 0
0.5749017 -0.014043735 -0.83556354 0
0.58360541 -0.014009125 -0.83553475 0
0.59432268 -0.014069456 -0.83571821 0
0.60490477 -0.014 -0.83432007 0
0.61518776 -0.014046674 -0.83517057 0
0.62531996 -0.014248783 -0.83522242 0
0.63446826 -0.014488544 -0.8352018 0
0.64441615 -0.014930929 -0.83405232 0
0.6556474 -0.015000001 -0.83494085 0
0.66398174 -0.015 -0.83487272 0
0.67399293 -0.014999999 -0.83533067 0
0.6854195 -0.015000001 -0.83607298 0
0.69612646 -0.014971301 -0.83440357 0
0.70450407 -0.015169488 -0.83403844 0
0.71524179 -0.015073096 -0.83353251 0
0.72505891 -0.014584605 -0.8356089 0
0.73434252 -0.014677339 -0.83507216 0
0.7460556 -0.01453753 -0.83421791 0
0.75473994 -0.014623347 -0.83523417 0
0.76434427 -0.014889331 -0.83481532 0
0.7736752 -0.014899871 -0.83613312 0
0.78508741 -0.014480782 -0.83442992 0
0.7945227 -0.014768395 -0.8374427 0
0.80540329 -0.014660196 -0.83622664 0
0.81401068 -0.014934294 -0.83549756 0
0.82463396 -0.015000001 -0.83377516 0
0.83553553 -0.015370778 -0.83502179 0
0.8452124 -0.015079268 -0.8349871 0
0.85487026 -0.015064857 -0.83602375 0
0.86614782 -0.015089626 -0.83425248 0
0.87473369 -0.01504981 -0.8351382 0
0.8844434 -0.015619189 -0.83496332 0
0.89523 -0.015921315 -0.83672148 0
0.90651333 -0.015725499 -0.83636957 0
0.91442531 -0.015648685 -0.83607358 0
0.92506462 -0.015986374 -0.83665776 0
0.93440968 -0.016029118 -0.83602929 0
0.94431394 -0.016247965 -0.83460575 0
0.95441455 -0.016834214 -0.8345263 0
0.96420431 -0.016874472 -0.83531272 0
0.97412395 -0.016967665 -0.83557147 0
0.98541754 -0.01710538 -0.83538884 0
0.9957602 -0.017281806 -0.83460498 0
1.0045335 -0.017508937 -0.83415955 0
1.0142859 -0.017999999 -0.8345837 0
1.0255172 -0.018000001 -0.83511877 0
1.0354608 -0.017999997 -0.836649 0
1.0462668 -0.018033387 -0.83557689 0
1.055931 -0.018172763 -0.83393699 0
1.0644391 -0.018534465 -0.83655876 0
1.0746207 -0.018952835 -0.83674759 0
1.0851992 -0.018959066 -0.83613157 0
1.0947901 -0.019093802 -0.83538288 0
1.1048511 -0.019073784 -0.83488959 0
1.1163194 -0.019371359 -0.83668298 0
1.1252713 -0.019439476 -0.83621693 0
1.1335018 -0.019805655 -0.83396614 0
1.1445153 -0.019322032 -0.83298671 0
1.1566511 -0.019914566 -0.83129543 0
1.1609954 -0.019994508 -0.83198869 0
-0.38173112 -0.051486034 -0.82615113 0
-0.37752792 -0.052206162 -0.82537282 0
-0.36080509 -0.050937667 -0.8216989 0
-0.35365039 -0.050595213 -0.8233248 0
-0.34631568 -0.050098613 -0.82695276 0
-0.33458424 -0.050128512 -0.82235748 0
-0.31671679 -0.050692149 -0.82688475 0
0.7245723 -0.050858743 -0.82850635 0
0.73482007 -0.050419178 -0.8238554 0
0.74088949 -0.050523218 -0.82137328 0
-0.37314269 -0.042571459 -0.82293797 0
-0.36397228 -0.041216888 -0.82462692 0
-0.357016 -0.040295798 -0.82589608 0
-0.34375593 -0.04235116 -0.82488942 0
-0.33630258 -0.043462496 -0.82608306 0
-0.32368749 -0.047401447 -0.82483995 0
-0.31564346 -0.042801131 -0.822918 0
-0.30517122 -0.044505354 -0.82436669 0
-0.29389051 -0.042686537 -0.82421684 0
-0.2836448 -0.04194003 -0.82706064 0
-0.27370539 -0.041714374 -0.82779408 0
-0.26672512 -0.043468658 -0.82601148 0
-0.2543951 -0.042902496 -0.82706404 0
-0.24785218 -0.041702963 -0.82939029 0
0.20817697 -0.040966667 -0.82685637 0
0.21568282 -0.041247148 -0.82593936 0
0.22205201 -0.043489046 -0.82495725 0
0.23749848 -0.04031609 -0.82600141 0
0.24276827 -0.040816829 -0.82277709 0
0.25661957 -0.04041265 -0.82655191 0
0.26175255 -0.040738385 -0.82432157 0
0.27706978 -0.040733721 -0.82146281 0
0.28453514 -0.040615324 -0.82721204 0
0.29381025 -0.040151849 -0.8215698 0
0.33926117 -0.041000001 -0.82337594 0
0.34517524 -0.040837057 -0.82185751 0
0.35334355 -0.040671304 -0.82806695 0
0.36409339 -0.040489815 -0.82248813 0
0.37522933 -0.040516242 -0.82389587 0
0.38775915 -0.040701006 -0.82460183 0
0.39739838 -0.040954251 -0.82785857 0
0.41887322 -0.041000001 -0.82843161 0
0.42406043 -0.040662672 -0.82955128 0
0.43327034 -0.040396374 -0.82726485 0
0.44655675 -0.040504791 -0.82514894 0
0.45642909 -0.040678304 -0.82586139 0
0.46541941 -0.040341455 -0.82598782 0
0.47272557 -0.040646411 -0.8259396 0
0.48823029 -0.040887859 -0.82545424 0
0.49390453 -0.041871335 -0.82217491 0
0.50688994 -0.042879973 -0.8210426 0
0.51662034 -0.044330556 -0.82518137 0
0.52773786 -0.045450509 -0.82665712 0
0.53699088 -0.040925875 -0.82877243 0
0.54778355 -0.042548835 -0.82805133 0
0.55600804 -0.040940478 -0.82863069 0
0.56587267 -0.044628158 -0.82460243 0
0.57839853 -0.042130638 -0.82511586 0
0.58497173 -0.042364307 -0.82547879 0
0.59519231 -0.044556063 -0.82661849 0
0.60411191 -0.043066122 -0.82602215 0
0.6161657 -0.041409876 -0.82442307 0
0.62588531 -0.042226408 -0.82470173 0
0.63414574 -0.043637313 -0.82457614 0
0.6472373 -0.04550869 -0.8226043 0
0.68888915 -0.045324717 -0.82830828 0
0.6914506 -0.043296505 -0.82943803 0
0.70986199 -0.041824196 -0.82982421 0
0.71655571 -0.040878292 -0.82930613 0
0.72666782 -0.042213779 -0.82631236 0
0.73625761 -0.043214306 -0.82443291 0
0.74482542 -0.04313951 -0.82372302 0
0.75475949 -0.043031618 -0.82336152 0
0.7654404 -0.044099726 -0.82272863 0
0.77471125 -0.043991297 -0.82300532 0
0.78238147 -0.042017229 -0.82230699 0
0.79430878 -0.041442383 -0.82091641 0
0.8277635 -0.045795094 -0.82229763 0
0.83468783 -0.045289461 -0.82324165 0
0.84552824 -0.04578102 -0.82276487 0
0.85344267 -0.045369677 -0.82533824 0
0.86465001 -0.044738125 -0.82765323 0
0.87548566 -0.044969786 -0.82413602 0
0.88646221 -0.04508549 -0.82210261 0
-0.88096297 -0.035999998 -0.82800001 0
-0.86231929 -0.034583393 -0.82416755 0
-0.85492581 -0.03515638 -0.82549334 0
-0.84487367 -0.032950886 -0.82573205 0
-0.83726728 -0.031004926 -0.82585502 0
-0.81213176 -0.031105768 -0.82378387 0
-0.80435914 -0.030902315 -0.82497472 0
-0.3545734 -0.0396153 -0.82455146 0
-0.34407011 -0.039103393 -0.82697821 0
-0.33341676 -0.039201263 -0.82518607 0
-0.32431281 -0.036801778 -0.82469517 0
-0.31688112 -0.038518246 -0.8274824 0
-0.30593365 -0.038916923 -0.82746649 0
-0.29407632 -0.039640266 -0.82840329 0
-0.28680477 -0.039697103 -0.82908285 0
-0.25205418 -0.038622927 -0.82851714 0
0.21545176 -0.039585143 -0.82741481 0
0.22647931 -0.039358187 -0.82760423 0
0.23422791 -0.039081834 -0.82792389 0
0.24392492 -0.038749967 -0.82693475 0
0.25356582 -0.039760392 -0.82449311 0
0.27561522 -0.039702203 -0.82618153 0
0.28397012 -0.039622989 -0.8232702 0
0.29063356 -0.039163593 -0.82140517 0
0.36691266 -0.039213948 -0.82103491 0
0.37461463 -0.039387252 -0.82293224 0
0.43622738 -0.038964722 -0.82798171 0
0.44484162 -0.038759876 -0.82766265 0
0.45294732 -0.038865425 -0.82811451 0
0.46486694 -0.039646912 -0.82819748 0
0.47329783 -0.03937339 -0.82925987 0
0.5650534 -0.036992058 -0.82444692 0
0.57419711 -0.039276283 -0.82835412 0
0.58236897 -0.039402872 -0.82792336 0
0.60648698 -0.039264586 -0.82198155 0
0.61223578 -0.039315324 -0.82331532 0
0.7271781 -0.039832082 -0.8264057 0
0.73598337 -0.039130893 -0.82749557 0
0.74505538 -0.039363544 -0.82678652 0
0.75238276 -0.038941938 -0.82477516 0
0.76631552 -0.038290564 -0.82218409 0
0.77521729 -0.039603062 -0.8241089 0
0.78146058 -0.039893214 -0.8223865 0
0.80945694 -0.038045809 -0.82092416 0
0.81392115 -0.036780909 -0.82236743 0
1.2892165 -0.031028116 -0.82889599 0
1.2951803 -0.03097309 -0.82687032 0
1.3067018 -0.030892488 -0.82713759 0
1.3152535 -0.031601202 -0.82436746 0
1.3257062 -0.032237362 -0.82506841 0
1.336437 -0.03257037 -0.8243295 0
1.3452947 -0.031801078 -0.82523942 0
1.354854 -0.031432334 -0.8267526 0
1.364969 -0.031544812 -0.8259849 0
1.374548 -0.031709637 -0.82622808 0
1.3888443 -0.030756211 -0.82113981 0
1.3924042 -0.030154528 -0.82280487 0
1.4013872 -0.030026127 -0.82029849 0
1.4111516 -0.030047566 -0.82065803 0
1.4266651 -0.030971842 -0.82541943 0
1.4342573 -0.031320971 -0.82571095 0
1.4447316 -0.031560689 -0.82639694 0
1.4527898 -0.031348627 -0.82612497 0
-0.86444098 -0.029013935 -0.82555681 0
-0.85565823 -0.026592385 -0.82850254 0
-0.84513938 -0.025523761 -0.82504243 0
-0.8343417 -0.024586348 -0.82499862 0
-0.82461035 -0.023212427 -0.82580686 0
-0.81577528 -0.027096011 -0.8242774 0
-0.80499381 -0.026089281 -0.82589006 0
-0.79515851 -0.023786664 -0.8234942 0
-0.78569311 -0.024186937 -0.82598567 0
-0.77544016 -0.026030745 -0.82395709 0
-0.76446664 -0.026119705 -0.82580775 0
-0.75495893 -0.022308312 -0.8259812 0
-0.74512923 -0.021377383 -0.82577813 0
-0.73537987 -0.020774893 -0.82294625 0
-0.72300744 -0.020901734 -0.82337862 0
-0.713543 -0.021389296 -0.82554442 0
-0.70467973 -0.023673957 -0.8261438 0
-0.69464439 -0.023343101 -0.82596964 0
-0.68535447 -0.021052886 -0.82445741 0
-0.67395341 -0.022669602 -0.8255744 0
-0.66617721 -0.022117592 -0.82535404 0
-0.65514904 -0.02156073 -0.82544822 0
-0.64422059 -0.02180871 -0.82475764 0
-0.63436365 -0.020827018 -0.82567489 0
-0.62695533 -0.020569971 -0.82730359 0
1.1138945 -0.020386761 -0.82704514 0
1.1259625 -0.020778459 -0.82366842 0
1.1345134 -0.020716893 -0.82382673 0
1.1443307 -0.021089545 -0.82371593 0
1.15342 -0.020958139 -0.82300735 0
1.1657931 -0.020386729 -0.82372892 0
1.1754502 -0.020730039 -0.82568038 0
1.1847717 -0.020914825 -0.82543236 0
1.1952353 -0.021118877 -0.82472795 0
1.2048335 -0.02129106 -0.82457101 0
1.2145382 -0.02195718 -0.82387787 0
1.2260232 -0.022538742 -0.82545757 0
1.2360591 -0.023189347 -0.82551879 0
1.2454927 -0.022824233 -0.82511002 0
1.2551481 -0.024001727 -0.82428616 0
1.2639428 -0.025030905 -0.82481694 0
1.275298 -0.025350474 -0.82417107 0
1.2853315 -0.026438633 -0.82445496 0
1.2966393 -0.02707848 -0.82716441 0
1.3042471 -0.029053796 -0.82395315 0
1.3137827 -0.025999997 -0.82299995 0
1.3789907 -0.029244283 -0.82407683 0
1.3852096 -0.029082233 -0.82412159 0
1.3960013 -0.028990725 -0.82541519 0
1.4044209 -0.029002329 -0.82546586 0
1.4147067 -0.029485522 -0.82542068 0
1.4217291 -0.029962666 -0.82591581 0
1.4534463 -0.026239431 -0.8229394 0
-0.85272157 -0.018354325 -0.82120442 0
-0.84904218 -0.019529279 -0.82330459 0
-0.83617151 -0.019469576 -0.82761073 0
-0.73541826 -0.02 -0.82774371 0
-0.72541183 -0.01994149 -0.82641649 0
-0.71631771 -0.02 -0.82540488 0
-0.62458062 -0.02 -0.82082248 0
-0.61440039 -0.019457065 -0.82435876 0
-0.60478115 -0.019253764 -0.82463956 0
-0.59556514 -0.018267779 -0.82449758 0
-0.58572322 -0.018041011 -0.82523149 0
-0.57473683 -0.017103035 -0.82538795 0
-0.56604439 -0.016667742 -0.82389724 0
-0.5543673 -0.016994493 -0.82627875 0
-0.54361713 -0.016932633 -0.82519388 0
-0.53445572 -0.016917173 -0.82574433 0
-0.52467746 -0.017702088 -0.82552046 0
-0.51602769 -0.017670542 -0.82482529 0
-0.50506485 -0.017270057 -0.82592511 0
-0.49410012 -0.016604733 -0.82529753 0
-0.48480946 -0.016777238 -0.82577151 0
-0.47447267 -0.016499674 -0.82569277 0
-0.46549502 -0.016447866 -0.82488018 0
-0.45469615 -0.016440198 -0.82638431 0
-0.4441829 -0.016067721 -0.82396853 0
-0.434955 -0.016000001 -0.82329476 0
-0.4252888 -0.016000001 -0.82477337 0
-0.41420579 -0.016000001 -0.82663614 0
-0.40432245 -0.016007002 -0.82602268 0
-0.39403665 -0.015954822 -0.82639521 0
-0.38533032 -0.015953569 -0.82410097 0
-0.37427735 -0.015589762 -0.8260209 0
-0.36465716 -0.015042232 -0.82428741 0
-0.35494989 -0.015 -0.82469493 0
-0.34552523 -0.014981592 -0.82474536 0
-0.33521616 -0.014642861 -0.82542992 0
-0.32389688 -0.014 -0.82427984 0
-0.31479189 -0.014 -0.82521349 0
-0.30526644 -0.014 -0.82465398 0
-0.29503524 -0.014 -0.82523465 0
-0.28460762 -0.013981462 -0.82465082 0
-0.2736339 -0.013676496 -0.82552367 0
-0.26454991 -0.013419037 -0.82574779 0
-0.2557238 -0.013149232 -0.82374454 0
-0.24619263 -0.012999998 -0.82465816 0
-0.23419754 -0.012999998 -0.82516581 0
-0.22471873 -0.012999998 -0.82385981 0
-0.21440756 -0.012999998 -0.82637584 0
-0.20500807 -0.012999998 -0.82507926 0
-0.19525379 -0.012999999 -0.82355952 0
-0.18534343 -0.012999998 -0.82504916 0
-0.17511293 -0.012893945 -0.82403785 0
-0.16483235 -0.012679526 -0.82466096 0
-0.15578134 -0.012143023 -0.82541019 0
-0.14533509 -0.012 -0.82471818 0
-0.13507962 -0.012 -0.82537526 0
-0.12433475 -0.011761004 -0.82497919 0
-0.11450754 -0.011259202 -0.82499111 0
-0.10449351 -0.011784267 -0.82501698 0
-0.096085466 -0.011209957 -0.82475752 0
-0.085389458 -0.0113251 -0.82443118 0
-0.0741603 -0.011728394 -0.82495701 0
-0.064464912 -0.011249484 -0.82471514 0
-0.053901419 -0.011 -0.82457513 0
-0.04519809 -0.011 -0.82531309 0
-0.036296718 -0.011 -0.82561606 0
-0.024250457 -0.011 -0.82415324 0
-0.014648211 -0.011 -0.82333916 0
-0.0045481375 -0.011 -0.82342893 0
0.0057142852 -0.011 -0.82499444 0
0.015986314 -0.011 -0.8250373 0
0.025135957 -0.011000002 -0.82538617 0
0.034690984 -0.011000001 -0.82470393 0
0.0442225 -0.011 -0.82435346 0
0.055148095 -0.011 -0.82471383 0
0.065355077 -0.011 -0.82581306 0
0.075457193 -0.011000001 -0.82564694 0
0.086563721 -0.011 -0.8264569 0
0.095081754 -0.011000001 -0.82513374 0
0.10631882 -0.011180251 -0.82508469 0
0.11563583 -0.011178737 -0.82485718 0
0.12467048 -0.011 -0.82479668 0
0.13422759 -0.011 -0.82373333 0
0.14454417 -0.011000003 -0.82412463 0
0.15520474 -0.011 -0.82630765 0
0.16463627 -0.011 -0.82564616 0
0.17560913 -0.011000003 -0.82597613 0
0.18415003 -0.011 -0.82541561 0
0.19663677 -0.010731939 -0.82464385 0
0.20440421 -0.010617669 -0.82560986 0
0.21375446 -0.011 -0.8246147 0
0.22374618 -0.010668023 -0.82417041 0
0.23459765 -0.010895 -0.82507443 0
0.24500501 -0.010696859 -0.82444459 0
0.25520408 -0.010852556 -0.82469791 0
0.26394913 -0.010798647 -0.82537043 0
0.27509192 -0.010861466 -0.82559347 0
0.28610653 -0.010956229 -0.82452965 0
0.29558387 -0.010973766 -0.8257854 0
0.30610242 -0.011 -0.82690734 0
0.31520891 -0.011 -0.82469559 0
0.32547295 -0.01116753 -0.82358819 0
0.33517256 -0.011496323 -0.82570118 0
0.34461462 -0.011396114 -0.82516724 0
0.35392714 -0.011830497 -0.826325 0
0.36427468 -0.011876325 -0.82450986 0
0.37414509 -0.011995227 -0.82550967 0
0.3843579 -0.012000001 -0.82573026 0
0.39474726 -0.012000001 -0.82491159 0
0.40411669 -0.012000001 -0.82499856 0
0.41440696 -0.012014764 -0.82533133 0
0.42544273 -0.012456271 -0.82585567 0
0.4356313 -0.012471772 -0.82483447 0
0.44467759 -0.01271407 -0.82416713 0
0.45472702 -0.012937495 -0.82482815 0
0.46588168 -0.012999998 -0.82494134 0
0.47446784 -0.012999999 -0.82371855 0
0.4858866 -0.013211165 -0.82525218 0
0.49444076 -0.013094719 -0.82576025 0
0.50358379 -0.013241591 -0.82381403 0
0.51530951 -0.013685768 -0.82575971 0
0.52556646 -0.014 -0.82547635 0
0.53415543 -0.014 -0.82551062 0
0.54411882 -0.014 -0.8246184 0
0.55447036 -0.014 -0.82516533 0
0.5651176 -0.01406804 -0.82456166 0
0.57467973 -0.014 -0.82543659 0
0.58491081 -0.014 -0.82569611 0
0.59504253 -0.014 -0.82583135 0
0.60494328 -0.014 -0.82612944 0
0.61515564 -0.014 -0.82465732 0
0.62666959 -0.014394647 -0.82599437 0
0.63487828 -0.014036792 -0.82433921 0
0.64546764 -0.014179708 -0.82482886 0
0.65433586 -0.014413498 -0.82399791 0
0.66477513 -0.014999999 -0.82539696 0
0.67397797 -0.015000001 -0.82309532 0
0.68451315 -0.015000001 -0.82492101 0
0.69528192 -0.015 -0.82478684 0
0.70510805 -0.015000001 -0.82500321 0
0.7151258 -0.014839696 -0.82566178 0
0.72470361 -0.014985872 -0.82469988 0
0.73319221 -0.015000001 -0.82522142 0
0.74434626 -0.014961286 -0.8259244 0
0.75476933 -0.015000001 -0.8274523 0
0.76449341 -0.015000001 -0.82510132 0
0.77473676 -0.014971669 -0.82373631 0
0.78522444 -0.014922065 -0.82517552 0
0.79506385 -0.014757872 -0.82495576 0
0.80483705 -0.014862835 -0.82652152 0
0.81517541 -0.015 -0.82443833 0
0.82494885 -0.015000001 -0.82457769 0
0.83529431 -0.015000001 -0.82509482 0
0.84667623 -0.015 -0.82366914 0
0.85643262 -0.015000001 -0.82467616 0
0.86475354 -0.015138811 -0.82562846 0
0.87469661 -0.015429201 -0.82485145 0
0.88597769 -0.015739771 -0.82546884 0
0.89667314 -0.015845576 -0.8237918 0
0.90531182 -0.015453892 -0.82478225 0
0.91514504 -0.015411514 -0.82464647 0
0.92679328 -0.015965896 -0.82407951 0
0.93471515 -0.016000001 -0.82570392 0
0.94440979 -0.016003396 -0.82536012 0
0.95348257 -0.016319821 -0.82518208 0
0.96442229 -0.016150855 -0.8246792 0
0.97497386 -0.016516408 -0.82534945 0
0.98476946 -0.017046949 -0.82624471 0
0.99496692 -0.017327523 -0.82492214 0
1.0059165 -0.01700189 -0.82341629 0
1.0159224 -0.017783487 -0.82552642 0
1.0252142 -0.017580042 -0.82270378 0
1.0343519 -0.017999999 -0.82557368 0
1.044993 -0.017945101 -0.82523406 0
1.0549675 -0.017999999 -0.82511586 0
1.0654005 -0.018470105 -0.82581222 0
1.0756497 -0.018661596 -0.82481402 0
1.085448 -0.018506227 -0.82480681 0
1.0951561 -0.019075466 -0.82498336 0
1.1046973 -0.019445905 -0.8251341 0
1.1107037 -0.019008281 -0.82214499 0
1.1238261 -0.019769926 -0.82655674 0
1.1351016 -0.019777667 -0.82905042 0
1.1493957 -0.019079126 -0.82893467 0
1.1525655 -0.019738553 -0.82794905 0
1.1657095 -0.019861512 -0.8248992 0
-0.38516897 -0.053094633 -0.81587684 0
-0.3622573 -0.050999999 -0.81733078 0
-0.3571631 -0.050677847 -0.81564265 0
-0.33118588 -0.050359137 -0.81702024 0
-0.32663742 -0.050528307 -0.81776839 0
0.70877856 -0.050803553 -0.81241786 0
0.74385893 -0.050483845 -0.81905866 0
0.77603585 -0.050677884 -0.81484723 0
0.78395903 -0.050824609 -0.81469828 0
0.79654133 -0.050389573 -0.8184852 0
0.81744939 -0.050871097 -0.8151812 0
0.82296276 -0.050524145 -0.81531674 0
0.83333939 -0.050626896 -0.81527984 0
0.84671402 -0.050999999 -0.8129648 0
-0.37363499 -0.042335913 -0.81463742 0
-0.3657445 -0.040859114 -0.81518447 0
-0.35501429 -0.043417692 -0.81344986 0
-0.3435367 -0.046765994 -0.81512511 0
-0.33339992 -0.047280658 -0.8140747 0
-0.32383323 -0.045142766 -0.81609732 0
-0.31533003 -0.044009939 -0.81383353 0
-0.30583832 -0.042802595 -0.81560713 0
-0.29523158 -0.042432114 -0.81389099 0
-0.2847445 -0.043476313 -0.8128624 0
-0.27528194 -0.04462393 -0.81493825 0
-0.2644107 -0.042529009 -0.81355113 0
-0.25531098 -0.04114078 -0.81346774 0
-0.24891293 -0.040984415 -0.81242257 0
-0.21580358 -0.040715583 -0.81816685 0
0.20711404 -0.040398151 -0.81243753 0
0.21522224 -0.040423986 -0.81387538 0
0.22565216 -0.04069607 -0.81147105 0
0.2314142 -0.040996563 -0.81051373 0
0.24775483 -0.040637434 -0.81845045 0
0.25811914 -0.040466879 -0.81357694 0
0.2636517 -0.040657543 -0.81697768 0
0.27515244 -0.040641315 -0.81806791 0
0.28721946 -0.040600318 -0.8146283 0
0.29142869 -0.040375561 -0.81224889 0
0.30042416 -0.040041178 -0.81813759 0
0.3399229 -0.040983539 -0.81842887 0
0.34490532 -0.040304098 -0.81671667 0
0.35782045 -0.040523019 -0.81603181 0
0.36286509 -0.040695265 -0.81401849 0
0.37366477 -0.040428437 -0.81762826 0
0.38876516 -0.040421028 -0.81769639 0
0.39028221 -0.040787615 -0.81806159 0
0.40929091 -0.041000001 -0.81267548 0
0.4280335 -0.040897369 -0.81069213 0
0.4468286 -0.043170504 -0.81120145 0
0.45087489 -0.044161171 -0.81065059 0
0.47861528 -0.041007236 -0.81824863 0
0.48336601 -0.040822618 -0.8184008 0
0.4967334 -0.041354567 -0.81630427 0
0.50630629 -0.04068682 -0.81301916 0
0.51549715 -0.043190878 -0.81653053 0
0.52496547 -0.043689389 -0.81512839 0
0.53736073 -0.040258907 -0.81257302 0
0.54322964 -0.040920954 -0.81304997 0
0.55399996 -0.041000005 -0.81300002 0
0.5690518 -0.041308489 -0.81781161 0
0.57543552 -0.042197891 -0.81572652 0
0.58403277 -0.043591548 -0.8145532 0
0.59390575 -0.042740602 -0.81507683 0
0.60650122 -0.044366423 -0.81661057 0
0.61389202 -0.044856194 -0.81647688 0
0.62556535 -0.044504024 -0.81819594 0
0.6345827 -0.044304278 -0.81727701 0
0.6445989 -0.044900525 -0.81453437 0
0.65527451 -0.044843249 -0.81262171 0
0.66556978 -0.045639727 -0.81264216 0
0.67592353 -0.045619186 -0.81191283 0
0.68340969 -0.042326186 -0.81296867 0
0.69521582 -0.040941097 -0.81082326 0
0.70717347 -0.044275519 -0.81599176 0
0.71611774 -0.045115691 -0.81446552 0
0.72056997 -0.044912208 -0.81140816 0
0.74715507 -0.046161484 -0.81894255 0
0.7547949 -0.044309851 -0.81828594 0
0.76539403 -0.044067118 -0.81443638 0
0.77543294 -0.046096645 -0.81628853 0
0.78515851 -0.044138022 -0.81519628 0
0.79464602 -0.044412035 -0.81557864 0
0.80548477 -0.042386472 -0.81646013 0
0.81544077 -0.043870434 -0.81430376 0
0.82596225 -0.043689944 -0.81660014 0
0.83521092 -0.046651471 -0.81679958 0
0.84514242 -0.046578001 -0.81526381 0
0.85539722 -0.041895911 -0.81359094 0
0.86462188 -0.043970492 -0.81308365 0
0.8742395 -0.044351619 -0.81495136 0
0.88447154 -0.044012677 -0.81435877 0
-0.88798249 -0.033724859 -0.81221783 0
-0.87298554 -0.032131713 -0.81134856 0
-0.86382383 -0.032898299 -0.81443775 0
-0.85491842 -0.035378546 -0.81501591 0
-0.83583677 -0.030514207 -0.81972677 0
-0.81452894 -0.031343248 -0.81574434 0
-0.3644892 -0.039569315 -0.81171227 0
-0.35489523 -0.039631318 -0.81589442 0
-0.34532335 -0.039595269 -0.81452954 0
-0.33275101 -0.037203878 -0.81409627 0
-0.32636377 -0.038586278 -0.81399155 0
-0.30150083 -0.03940675 -0.81154305 0
0.2163302 -0.039818522 -0.81117439 0
0.24813411 -0.039999999 -0.81950432 0
0.25354984 -0.037596203 -0.81772131 0
0.26571929 -0.039711788 -0.81451243 0
0.28907359 -0.039275158 -0.81719643 0
0.29498285 -0.039534181 -0.81821728 0
0.34796262 -0.039498057 -0.81815118 0
0.35340089 -0.039046511 -0.81836069 0
0.36687478 -0.039268021 -0.81871593 0
0.37421498 -0.039583363 -0.81870317 0
0.48761058 -0.039555766 -0.81856525 0
0.49563399 -0.039333958 -0.8167575 0
0.5047887 -0.039399326 -0.81552374 0
0.51500398 -0.039116398 -0.81341749 0
0.52364558 -0.038849954 -0.81255788 0
0.53345674 -0.039482009 -0.81248724 0
0.58541638 -0.039505497 -0.81285053 0
0.59097672 -0.039796203 -0.81289661 0
0.76447636 -0.036673851 -0.81832147 0
0.77525431 -0.037712369 -0.81839168 0
0.78315914 -0.038412858 -0.81810749 0
