# .PCD v0.7 - Point Cloud Data file format
VERSION 0.7
FIELDS x y z
SIZE 4 4 4
TYPE F F F
COUNT 1 1 1
WIDTH 522
HEIGHT 1
VIEWPOINT 0 0 0 1 0 0 0
POINTS 522
DATA ascii
0.60449553 0.029645812 1.4778816
0.60504735 0.035328273 1.4780511
0.60650766 0.043395653 1.4788573
0.61022675 0.043401651 1.4770875
0.60473347 0.01700926 1.4871626
0.58828396 0.028096037 1.488533
0.59641695 0.025710288 1.4862868
0.60230482 0.023903511 1.48278
0.59567267 0.035651471 1.4852636
0.60111988 0.037992157 1.4806901
0.59480792 0.045280252 1.4863119
0.60278845 0.04574611 1.4826859
0.57654274 0.056269202 1.4870845
0.59545714 0.055756312 1.488292
0.60214227 0.054705977 1.4874214
0.56885892 0.068903789 1.4867134
0.57378542 0.066473022 1.4858476
0.58690006 0.069245599 1.4878418
0.59578079 0.062580146 1.4850979
0.5666334 0.073367037 1.4875486
0.57351613 0.074118182 1.4870056
0.58646947 0.072591335 1.4892668
0.55437565 0.098185107 1.4872596
0.56009048 0.098243423 1.4863923
0.54843789 0.1083174 1.4864335
0.54653591 0.11130726 1.4878966
0.57897627 0.023714866 1.4999264
0.58449215 0.024661956 1.4964285
0.59259033 0.020547181 1.4939487
0.57706261 0.038914673 1.4969814
0.58585954 0.034709521 1.4961901
0.59063971 0.03761946 1.4912205
0.57461101 0.04354535 1.4926647
0.58691525 0.044460546 1.4942576
0.56783384 0.058215965 1.4977531
0.57126576 0.05925877 1.4987832
0.58631015 0.056266345 1.4956441
0.59158647 0.055116408 1.4913113
0.5663864 0.065191299 1.4964651
0.57437652 0.063942462 1.4954137
0.58526683 0.064034164 1.492944
0.5909183 0.062523298 1.4900334
0.5582 0.075519577 1.4959944
0.56405705 0.074737474 1.4949583
0.57485765 0.07627254 1.4950054
0.58327216 0.077495672 1.4907593
0.54572344 0.087286085 1.4976523
0.55380112 0.084798217 1.4966142
0.56585878 0.084305406 1.4979746
0.57261592 0.084972054 1.4957929
0.53941226 0.093672052 1.4995755
0.54529113 0.095127344 1.4947189
0.5523814 0.094771191 1.4949319
0.56414163 0.093594998 1.4916011
0.53891039 0.10427982 1.4995704
0.54393637 0.10501094 1.4935273
0.53833973 0.11416748 1.4972888
0.54222143 0.1118748 1.4921088
0.58701789 0.01643623 1.5060836
0.5759632 0.026007421 1.5055169
0.58352989 0.022058424 1.5037186
0.56602466 0.035157531 1.5069169
0.57537335 0.034488272 1.5044569
0.58184707 0.033635616 1.5005674
0.55784595 0.048136346 1.5078138
0.56689799 0.046137877 1.5049456
0.57414865 0.046254314 1.5047466
0.5808394 0.046196967 1.5020447
0.55768877 0.055381279 1.5055704
0.56515443 0.054352593 1.5039016
0.57499915 0.054564312 1.5040847
0.54980677 0.069210418 1.5098157
0.55643076 0.066641107 1.5055997
0.56562257 0.063825771 1.5057131
0.57046592 0.061910003 1.5018804
0.5446412 0.078743763 1.507794
0.55450076 0.075868711 1.5051848
0.56221902 0.0756687 1.5023789
0.53625095 0.088105939 1.5060929
0.54343885 0.083871149 1.5045825
0.55370975 0.083575226 1.501515
0.56480235 0.081352167 1.5012225
0.53506571 0.094647236 1.50428
0.52991802 0.1001924 1.508388
0.53437173 0.10470655 1.5045658
0.52867055 0.11483279 1.5073223
0.53310388 0.11522708 1.5027477
0.5286237 0.12615676 1.5079585
0.53275859 0.12459018 1.5031017
0.52808368 0.13400687 1.5073889
0.53156728 0.13043422 1.5025396
0.57654071 0.018288014 1.5168025
0.55987018 0.02865652 1.5199466
0.5655967 0.026707867 1.5149819
0.57217574 0.023370842 1.5138215
0.58014065 0.020138893 1.5106279
0.55806911 0.036649726 1.5152626
0.56135035 0.033518713 1.5129831
0.54907125 0.043579925 1.5189853
0.5545643 0.044492818 1.5146852
0.5657807 0.044036105 1.5119529
0.57055151 0.044308316 1.5110232
0.54811597 0.054924052 1.5168327
0.55203754 0.053586464 1.5118895
0.54741317 0.066895477 1.5155351
0.550641 0.063195944 1.5113131
0.5636552 0.063995183 1.5114099
0.53716469 0.076662898 1.5159624
0.5451321 0.073895887 1.512699
0.55250025 0.072383218 1.51271
0.52822113 0.086969741 1.5177673
0.53523427 0.08400777 1.5138781
0.52636147 0.095677823 1.5142704
0.53089499 0.09128277 1.5103105
0.51973665 0.10550782 1.5192633
0.5241484 0.10413938 1.5151311
0.51901227 0.11597475 1.5181741
0.5239346 0.1149046 1.5131183
0.51880014 0.12472337 1.5173835
0.52369314 0.12578012 1.5129246
0.51895809 0.13422927 1.5172715
0.52323973 0.135224 1.5125208
0.51904202 0.1460917 1.5177608
0.52251309 0.14443743 1.5134901
0.51757854 0.15360102 1.519307
0.51817846 0.16260314 1.5186596
0.56762022 0.016137937 1.5247116
0.55755395 0.026531419 1.5255535
0.56279856 0.02325625 1.5230362
0.54802555 0.036605354 1.5255716
0.55345893 0.03401472 1.5236979
0.53992939 0.045581289 1.528387
0.54510832 0.045085266 1.5246357
0.53815377 0.056050766 1.5270644
0.54323351 0.052665953 1.5233122
0.52893639 0.066381261 1.5279824
0.53598011 0.065321863 1.5235637
0.54239655 0.067059301 1.5217472
0.52797294 0.074181646 1.5273569
0.53336883 0.076849766 1.5251193
0.52541059 0.085293122 1.5253552
0.53057218 0.08092612 1.523315
0.51641458 0.095763847 1.5265849
0.52278095 0.092451401 1.5221092
0.51595044 0.10539978 1.5240424
0.51442266 0.11457656 1.5256621
0.50885892 0.1241852 1.5277233
0.51269317 0.12462834 1.5255375
0.50843906 0.13644302 1.5277852
0.5143975 0.13508567 1.5221298
0.508533 0.14642818 1.5286341
0.51349467 0.144605 1.5243205
0.50978178 0.1589593 1.5294013
0.51316494 0.15488815 1.5246285
0.50930637 0.16476628 1.5292941
0.51293641 0.16497138 1.5248866
0.50959122 0.17489116 1.5289333
0.51183015 0.17300619 1.5265617
0.5109998 0.18099374 1.5270002
0.55612803 0.019012671 1.5347452
0.54623991 0.027316734 1.5376776
0.55244666 0.024568925 1.533378
0.53839648 0.037463516 1.5368059
0.54456574 0.033547562 1.5338476
0.55214119 0.03012204 1.5301107
0.52899998 0.047907919 1.538092
0.53514791 0.044637937 1.5342836
0.54087698 0.040538121 1.5305851
0.52853644 0.05477532 1.5370982
0.53323275 0.055811528 1.5322795
0.52421379 0.065159746 1.5346987
0.51840633 0.077140033 1.5381609
0.5220595 0.076464258 1.533155
0.51551902 0.086947411 1.5365167
0.52105355 0.085520186 1.5312475
0.5065667 0.09502431 1.5366974
0.51269263 0.093179882 1.5333328
0.5068326 0.10586318 1.5343339
0.51086092 0.1028288 1.5302594
0.50625938 0.11528172 1.5349088
0.50412565 0.12524207 1.5361257
0.49962249 0.13597798 1.5393786
0.50393903 0.13423331 1.5338522
0.4989647 0.1423949 1.5388197
0.50376093 0.14507185 1.5339217
0.49935699 0.15475261 1.5385503
0.50416911 0.15487827 1.5332719
0.49934372 0.16342032 1.5386575
0.50427282 0.16610414 1.533945
0.49919981 0.17651826 1.5389974
0.50506061 0.17445752 1.5332495
0.49960408 0.18674517 1.5378469
0.50377363 0.18426982 1.5349376
0.54780853 0.018704891 1.5477436
0.53721774 0.026691234 1.5458921
0.54505527 0.022914812 1.5436472
0.55053997 0.020561179 1.5405865
0.52819473 0.037236128 1.5478649
0.533436 0.034352649 1.5447549
0.51975286 0.048777033 1.5482764
0.52531558 0.04509192 1.5447969
0.53174156 0.041859832 1.5402645
0.5181278 0.054414298 1.5471762
0.52398252 0.054807469 1.5419223
0.51654136 0.066791892 1.5454091
0.5209446 0.063807949 1.5423086
0.51500195 0.075077228 1.544921
0.50547421 0.087684393 1.5459912
0.51211381 0.08299686 1.5446275
0.49798265 0.097827159 1.5485445
0.50275707 0.094480403 1.5446968
0.49709785 0.10583373 1.5462816
0.50116575 0.10242398 1.5417814
0.49687824 0.11493412 1.5447185
0.50020444 0.11028433 1.5404946
0.49594057 0.12530968 1.5444986
0.50126928 0.12128353 1.5409644
0.49507007 0.13486663 1.5444045
0.48935124 0.14598666 1.5485631
0.49461612 0.1450077 1.5436226
0.48793057 0.15321597 1.549897
0.49384791 0.15599163 1.5446149
0.48907995 0.16539951 1.5485727
0.49622396 0.16438369 1.5435302
0.48938233 0.17242193 1.5495658
0.49368384 0.17508188 1.5448586
0.48920655 0.18016955 1.5492613
0.49455848 0.18479916 1.544516
0.48949739 0.19152604 1.5484922
0.49238184 0.19185312 1.546739
0.53937125 0.018966023 1.558665
0.52784401 0.028705096 1.5564541
0.53387982 0.024689464 1.5541807
0.54215372 0.020608632 1.5523248
0.51832789 0.035925474 1.5567834
0.52415937 0.033546273 1.5530263
0.5093599 0.047176652 1.5599279
0.51591927 0.045917012 1.5550138
0.50816596 0.055319518 1.5563631
0.51191372 0.054885142 1.5526674
0.50798786 0.064466901 1.5569088
0.5120039 0.063383356 1.5517756
0.50615013 0.075765476 1.5536588
0.5109818 0.077906653 1.55088
0.49881968 0.084290452 1.5574135
0.50296021 0.083192244 1.5527632
0.49679244 0.094125353 1.5550063
0.48878515 0.1085883 1.55514
0.49354205 0.10348116 1.5554543
0.48744342 0.11408222 1.5545158
0.49191412 0.11732552 1.5513879
0.48680764 0.12594312 1.5559622
0.49202511 0.12254806 1.5518231
0.48719361 0.13516201 1.5548712
0.49127784 0.13347422 1.5525119
0.48504105 0.14573748 1.5542164
0.48386574 0.15497684 1.5550077
0.4791289 0.16803145 1.5598066
0.48350772 0.16491722 1.5540586
0.47934651 0.17897893 1.5584761
0.48407498 0.17486684 1.5534816
0.48491162 0.18504624 1.5534059
0.48443428 0.19162644 1.5528251
0.51799524 0.028551983 1.566877
0.5258522 0.025325986 1.5642163
0.53366482 0.020874063 1.5622307
0.50693172 0.037070878 1.5683334
0.51312852 0.034634981 1.5641397
0.52049714 0.030076658 1.5628005
0.50544506 0.044243675 1.5653192
0.51079339 0.041682221 1.5605245
0.49672616 0.057024643 1.5672331
0.50316745 0.055132221 1.5627445
0.49527746 0.065987214 1.5662493
0.50090259 0.063735813 1.5613787
0.4889378 0.079248086 1.5669743
0.49533945 0.073924154 1.5630301
0.48739487 0.08554545 1.5671293
0.49352232 0.085570686 1.5619379
0.48563567 0.096885316 1.5670615
0.49219745 0.093243666 1.5622815
0.47991022 0.10556322 1.5693225
0.48502421 0.10446905 1.5627283
0.49074817 0.10278547 1.5612462
0.47773299 0.11510817 1.5666198
0.48160052 0.11296086 1.5621536
0.47766656 0.12510248 1.5666182
0.48240486 0.12442384 1.5616411
0.47690949 0.134481 1.5667375
0.48245659 0.13604885 1.5618366
0.47674444 0.14506416 1.566169
0.48247883 0.14325529 1.5618936
0.47612998 0.15419284 1.5638411
0.47539347 0.16400391 1.5635079
0.47692493 0.17300178 1.5617846
0.47925693 0.18401834 1.5606573
0.51696968 0.019073892 1.5779947
0.50848335 0.027303379 1.5780276
0.51486212 0.024914693 1.574579
0.52268744 0.02293849 1.5712329
0.49888262 0.038644854 1.5754826
0.50471509 0.034270104 1.5743582
0.51000726 0.032497503 1.5709904
0.4878931 0.048592858 1.5776222
0.49499533 0.044639308 1.5746946
0.48690674 0.056786682 1.5774133
0.49304599 0.054147691 1.5731199
0.48475707 0.065133765 1.5754365
0.47934949 0.077853054 1.5775681
0.48542371 0.07365983 1.573588
0.47826511 0.085706584 1.5770437
0.48319963 0.084680475 1.5722178
0.46969911 0.09763816 1.5782075
0.47639486 0.096028015 1.5772765
0.48268905 0.093599051 1.5723544
0.46862853 0.10563519 1.5768505
0.47544512 0.10612509 1.5731425
0.48023677 0.1019539 1.5730391
0.46769062 0.11438242 1.5781996
0.47260651 0.11457278 1.571901
0.46842036 0.12519069 1.5772229
0.47314864 0.12443932 1.5725899
0.46751001 0.13427214 1.5773568
0.47318715 0.13677268 1.5723268
0.46820539 0.1450951 1.5763214
0.47193679 0.14394164 1.5725021
0.46847877 0.15506218 1.5723524
0.46941307 0.16394097 1.5713313
0.50914413 0.018730137 1.5871257
0.49556741 0.028121704 1.5867075
0.5049293 0.02398479 1.5845892
0.51082164 0.021172771 1.5808642
0.48898396 0.03872877 1.5881116
0.49436927 0.035182286 1.5846223
0.48527718 0.04567498 1.5846105
0.4921785 0.040813439 1.5804935
0.4784236 0.055278346 1.5876968
0.48368508 0.053261742 1.582903
0.47621199 0.065450072 1.5851271
0.48093736 0.061176915 1.5821567
0.47464716 0.075244032 1.5845765
0.46548596 0.085557334 1.5878938
0.47303408 0.084725879 1.5836242
0.4591656 0.094645001 1.5894331
0.46492615 0.095433876 1.584986
0.47293529 0.092152983 1.5811729
0.45812711 0.10669175 1.5878515
0.46343082 0.10476783 1.5832986
0.45901653 0.11337859 1.5877658
0.4631795 0.11477174 1.5835773
0.45877942 0.12414382 1.5875832
0.46314415 0.1249878 1.5819614
0.45880571 0.13554054 1.5886184
0.4622038 0.13462348 1.5838449
0.4589918 0.14520688 1.5890145
0.463447 0.14409386 1.5843598
0.46271887 0.15189931 1.5853904
0.49780774 0.018404862 1.5973325
0.48720437 0.028814076 1.5948398
0.49466664 0.024262706 1.5945306
0.50077409 0.02180187 1.5905561
0.47815499 0.035910524 1.5979892
0.48433989 0.033989508 1.5935917
0.47646251 0.045694139 1.5950326
0.48089159 0.041427322 1.5928035
0.46904412 0.054945078 1.5979763
0.47280157 0.055208609 1.5933361
0.46772683 0.066215292 1.5957586
0.47245908 0.062647149 1.5917008
0.4659273 0.075543031 1.5947987
0.45701158 0.086148158 1.5954484
0.4655616 0.081815176 1.5930818
0.44985878 0.094135612 1.5988022
0.45370516 0.094661534 1.5947349
0.45438004 0.10492064 1.594418
0.45474824 0.11568765 1.5940114
0.45398736 0.12546638 1.5961006
0.45514873 0.13489379 1.594751
0.45560643 0.14513344 1.5952907
0.45703611 0.15496798 1.5942596
0.48785645 0.019262968 1.6090288
0.47777519 0.028106941 1.6071757
0.48466599 0.024109662 1.6034286
0.49105528 0.021772651 1.6018673
0.46803698 0.03443474 1.608022
0.47344548 0.03532533 1.603048
0.46763632 0.045769203 1.6057719
0.4718298 0.04315884 1.6020159
0.45888281 0.055398829 1.608174
0.46442607 0.054303642 1.6042392
0.45639044 0.066690832 1.6080312
0.46233425 0.06532608 1.6029103
0.44827577 0.076498941 1.6075259
0.45488024 0.074711464 1.603111
0.44800499 0.085238643 1.6075387
0.45235309 0.084012367 1.6021296
0.44746462 0.094933085 1.6045998
0.45037508 0.090196967 1.6017404
0.44761789 0.10466759 1.6042349
0.44707134 0.11558692 1.6058615
0.45070124 0.11626781 1.6011726
0.4470942 0.1272777 1.6059374
0.45041043 0.12419225 1.6019162
0.44702971 0.13583472 1.6065196
0.45078349 0.13401 1.6014068
0.44650424 0.14533837 1.6062577
0.45059976 0.1455514 1.601759
0.44800004 0.15420151 1.6052948
0.45174122 0.15398552 1.6016563
0.47880989 0.01800159 1.6186055
0.46826527 0.02846659 1.6151072
0.47438541 0.024663143 1.6143405
0.48114502 0.020605601 1.6122684
0.45831054 0.038367022 1.6175876
0.46360099 0.036328826 1.6144241
0.45743686 0.047366984 1.6153052
0.46276429 0.042783644 1.6114558
0.44873708 0.058028948 1.6172203
0.45445594 0.055828951 1.6141884
0.44764319 0.066078208 1.6152967
0.45468277 0.063382827 1.6114037
0.43983683 0.07984601 1.6181723
0.44466478 0.075252116 1.6148957
0.44350919 0.084826581 1.6137046
0.43897364 0.09616901 1.6173812
0.44206184 0.095297627 1.6130207
0.4388155 0.10572797 1.6173563
0.44292307 0.10502584 1.6126479
0.43667769 0.11489099 1.6171647
0.44191045 0.1151558 1.6119248
0.43840143 0.12495258 1.615788
0.44282588 0.12331855 1.61183
0.43829823 0.1322439 1.6166807
0.44157669 0.13522102 1.6124882
0.43902791 0.14341012 1.6141988
0.44200385 0.1436304 1.6113572
0.46715292 0.018329877 1.6278846
0.45802975 0.028468084 1.6275818
0.46588463 0.02488065 1.6250823
0.47191986 0.022135094 1.6220328
0.44979259 0.039263424 1.627944
0.45531929 0.035362128 1.6250198
0.46183968 0.032284796 1.6211319
0.44648126 0.044762839 1.6276326
0.45220906 0.043384202 1.6225672
0.44534418 0.0553624 1.6245189
0.45000076 0.054200161 1.6209992
0.43858093 0.06467063 1.6280178
0.4422819 0.065696098 1.623024
0.43868673 0.074334033 1.6245183
0.44111106 0.072413847 1.6223896
0.43682188 0.084751822 1.6251291
0.44013464 0.088620812 1.6216632
0.42887929 0.097893611 1.6277305
0.43437627 0.094124697 1.6247185
0.42899939 0.10131923 1.6291298
0.43326074 0.10488877 1.6233925
0.43352264 0.11558215 1.6231169
0.43487754 0.12120574 1.6222997
0.45873874 0.019180913 1.6381919
0.45613578 0.025103606 1.6357197
0.46207517 0.022050988 1.631556
0.44753495 0.035214446 1.6355749
0.45241871 0.032173354 1.6328388
0.43907133 0.045632243 1.6378838
0.44277599 0.044314515 1.6334885
0.43849921 0.056510251 1.6357054
0.44146401 0.052470528 1.6323527
0.43370879 0.064244255 1.6343911
0.42857647 0.077464469 1.6375822
0.4334074 0.074829444 1.6333582
0.42624632 0.084246293 1.6353066
0.43133569 0.081039011 1.6325002
0.42712811 0.093900591 1.6344416
0.43011126 0.09055727 1.6307102
0.42941174 0.10506505 1.631296
0.43075103 0.10675606 1.6300004
0.43052438 0.1113194 1.6306891
0.44873229 0.025960958 1.6457562
0.45268747 0.0226679 1.6428756
0.43903959 0.038788445 1.6481719
0.44455487 0.033838626 1.6449689
0.43545747 0.044096354 1.6457353
0.42850736 0.057868846 1.6475254
0.43365559 0.054436751 1.6433928
0.42651707 0.066033542 1.6441727
0.41931778 0.078026354 1.6482664
0.42478052 0.074714944 1.64336
0.42281547 0.086661316 1.6424451
0.44584638 0.024903595 1.6553122
0.45055768 0.021125408 1.6527848
0.43605152 0.036492448 1.6546131
0.44281134 0.031559881 1.6527641
0.42688543 0.046438247 1.6551019
0.43147594 0.040696129 1.6572781
0.42354488 0.054668088 1.6553148
0.41882882 0.064479806 1.6546692
0.42286178 0.062970348 1.6518533
0.41905946 0.070807487 1.6503021
0.43894857 0.025414387 1.6667597
0.44356337 0.024262046 1.6621364
0.42895678 0.037330884 1.6655854
0.43401346 0.033096824 1.6627954
0.41862354 0.045920003 1.6675386
0.4239614 0.043334085 1.6635408
0.41803318 0.054100905 1.6638942
0.42697164 0.029304551 1.6777331
0.43464544 0.026567284 1.6737872
0.44132265 0.02060046 1.6718376
0.41964516 0.038733274 1.6783024
0.42544049 0.035826977 1.6747868
0.43096447 0.03201928 1.6719769
0.41727734 0.043553717 1.6748961
0.42000157 0.041234124 1.6707643
0.41415519 0.052590769 1.6713655
0.42383382 0.028422231 1.6859965
0.43076521 0.025312355 1.6815318
0.41800877 0.038130175 1.6823299
0.42166626 0.033120308 1.6841261
0.41494673 0.040270183 1.6814423
0.42404041 0.026498334 1.69282
0.419 0.033815708 1.6927251
