# .PCD v0.7 - Point Cloud Data file format
VERSION 0.7
FIELDS x y z
SIZE 4 4 4
TYPE F F F
COUNT 1 1 1
WIDTH 453
HEIGHT 1
VIEWPOINT 0 0 0 1 0 0 0
POINTS 453
DATA ascii
-1.8579929 0.12701318 0.31799534
-1.8542477 0.13917661 0.31940183
-1.855504 0.14342941 0.31918338
-1.7576122 0.0390753 0.3296926
-1.7748861 0.049503479 0.3274802
-1.7625318 0.041969091 0.32938942
-1.780563 0.054321241 0.32744253
-1.7762774 0.05342273 0.32868871
-1.7909575 0.0794416 0.32910538
-1.8050766 0.084168538 0.32819065
-1.7954955 0.081712954 0.32952139
-1.8151127 0.09709613 0.32747132
-1.804085 0.095736735 0.32930237
-1.7965653 0.094107583 0.32990843
-1.8204756 0.10503335 0.3267023
-1.815371 0.10475407 0.32891789
-1.8370095 0.11956073 0.32479808
-1.8218811 0.11636283 0.32705909
-1.816775 0.11299016 0.32849908
-1.8515023 0.12776732 0.32180694
-1.8450915 0.12603128 0.32365161
-1.8354632 0.12523597 0.32546186
-1.8248676 0.12430281 0.32770601
-1.8525914 0.13420324 0.32197157
-1.8434978 0.13460681 0.3256118
-1.8341964 0.13523085 0.32679066
-1.8264632 0.13285553 0.32808521
-1.8530282 0.14565875 0.32270947
-1.844072 0.14533724 0.32620767
-1.8355374 0.14434502 0.32845333
-1.8252692 0.14358421 0.32863158
-1.8537916 0.15199517 0.32481182
-1.8471226 0.1531107 0.32879362
-1.8356416 0.15334482 0.32941324
-1.8501736 0.16191143 0.32991284
-1.7471703 0.039145339 0.33263409
-1.762256 0.045829624 0.3304095
-1.7542009 0.045790203 0.33271796
-1.746151 0.045476329 0.33651522
-1.7367897 0.045765501 0.33905929
-1.7725675 0.056487389 0.3320387
-1.7639133 0.05518014 0.33354691
-1.7553385 0.053470131 0.33641621
-1.7805811 0.064589716 0.33204663
-1.7744703 0.064115964 0.33364144
-1.7654375 0.065572135 0.33701488
-1.7597058 0.062388659 0.3392553
-1.780425 0.079448864 0.33538342
-1.7750607 0.074320391 0.33703268
-1.765323 0.074263923 0.33877853
-1.795655 0.086623698 0.33041367
-1.7842849 0.085056283 0.33349052
-1.7755131 0.085113138 0.33792493
-1.7936466 0.094964109 0.33071524
-1.7858878 0.09427873 0.33492658
-1.7752622 0.093495287 0.33892965
-1.8050724 0.10600537 0.33111531
-1.7940941 0.10524129 0.33169109
-1.7867967 0.10606738 0.33692837
-1.8116846 0.11603323 0.33090171
-1.8061898 0.11442441 0.33236143
-1.795375 0.11526719 0.33351827
-1.7877525 0.11378662 0.33727711
-1.8146126 0.12412684 0.33229879
-1.805943 0.1250928 0.33358574
-1.7949811 0.12380283 0.33722693
-1.7894113 0.1236968 0.33963555
-1.8208543 0.13533074 0.33131209
-1.8145764 0.13517158 0.33630624
-1.804878 0.13455734 0.33710769
-1.7967638 0.133624 0.33862591
-1.8308749 0.14785711 0.33168998
-1.8249605 0.146942 0.33249313
-1.8160532 0.14490725 0.33558953
-1.8053323 0.14521639 0.33865005
-1.797119 0.14654167 0.33928773
-1.842707 0.15626892 0.33099812
-1.8331853 0.15599237 0.33224201
-1.8232549 0.15613253 0.33525422
-1.8157645 0.1552605 0.33786815
-1.8057559 0.15454111 0.33966336
-1.8502433 0.16337927 0.33019209
-1.8431463 0.16285326 0.33231252
-1.8351538 0.16314487 0.33283457
-1.8248545 0.16611463 0.3358148
-1.8161646 0.16390201 0.33767739
-1.8080668 0.16268703 0.33935025
-1.7317443 0.047884393 0.34083802
-1.7267743 0.046591353 0.34477741
-1.7534547 0.057936717 0.34238502
-1.7453512 0.054239873 0.34287781
-1.7360474 0.055076491 0.34569153
-1.7261453 0.053864028 0.34760058
-1.7552234 0.064909942 0.34322402
-1.7454146 0.064020313 0.3474758
-1.7390084 0.060268201 0.34869486
-1.7631125 0.07680174 0.34108335
-1.7539444 0.074881278 0.34477091
-1.7463138 0.075076856 0.3483727
-1.7652748 0.085548416 0.34237283
-1.7542689 0.085238434 0.34550077
-1.7459896 0.085135631 0.34838745
-1.7724758 0.097410075 0.34030426
-1.7641569 0.095229119 0.34436202
-1.7554481 0.093958199 0.34686255
-1.7476315 0.09456078 0.34876263
-1.7825389 0.10442393 0.34084418
-1.7745563 0.10468393 0.34207815
-1.764581 0.10603195 0.34506837
-1.7549673 0.10550523 0.34745622
-1.7460737 0.10149157 0.34948361
-1.7826716 0.11604366 0.34184468
-1.7745026 0.11590049 0.3434391
-1.7638178 0.11509658 0.34449393
-1.7553352 0.11529461 0.34726632
-1.7481828 0.11448523 0.34922117
-1.785215 0.12462766 0.34267855
-1.7733364 0.12698396 0.3459394
-1.7646264 0.1263953 0.34638309
-1.7560402 0.12381168 0.34788677
-1.7915211 0.13511112 0.34180236
-1.7858735 0.13409236 0.34277388
-1.7754422 0.13593732 0.34474939
-1.7648344 0.13522884 0.34704021
-1.7579933 0.13518088 0.3492026
-1.7916758 0.14553875 0.34172204
-1.7852989 0.14510714 0.34386948
-1.7735308 0.14496312 0.34654832
-1.7669166 0.14441334 0.34776005
-1.8032336 0.15621622 0.34039652
-1.7942407 0.15516904 0.3419233
-1.7855799 0.15563905 0.34524849
-1.7757055 0.15442184 0.34703067
-1.7666793 0.15403672 0.34874055
-1.8112245 0.16741107 0.34027466
-1.8030462 0.16492604 0.34101868
-1.795073 0.16449651 0.34221372
-1.7811389 0.16175625 0.34697226
-1.7752421 0.16185759 0.34864822
-1.7670659 0.16195734 0.34939075
-1.7262524 0.048341263 0.35185808
-1.7318704 0.058972567 0.35054886
-1.7234133 0.055029523 0.35438839
-1.7184703 0.054429069 0.35957208
-1.741529 0.068206966 0.35130519
-1.7346749 0.06510973 0.35282195
-1.7282826 0.063186094 0.35675886
-1.7408462 0.07286644 0.35146245
-1.7361968 0.075930968 0.3528704
-1.7261086 0.075510465 0.35723624
-1.7348415 0.085255243 0.3516992
-1.7238978 0.085038848 0.35641292
-1.7161288 0.085250527 0.35930029
-1.7419666 0.094284967 0.35087278
-1.7357858 0.094727129 0.3524785
-1.7242817 0.094959624 0.35627535
-1.7161553 0.094970629 0.35898584
-1.7500747 0.10870277 0.35025126
-1.7427802 0.10538319 0.35088953
-1.7355645 0.10550091 0.35301834
-1.7229437 0.10572427 0.35652944
-1.7170395 0.10502629 0.35861018
-1.7427163 0.11539197 0.35054871
-1.7354369 0.11512113 0.35289982
-1.7257988 0.1145182 0.356682
-1.7169079 0.11601294 0.35872421
-1.7545104 0.12919042 0.35025287
-1.7459167 0.12546928 0.35166916
-1.7352077 0.12452222 0.35304216
-1.7259703 0.12453872 0.35677716
-1.7174482 0.12348688 0.35882741
-1.7527668 0.13619743 0.35140216
-1.7453223 0.13426615 0.35324106
-1.7351412 0.13470972 0.35471776
-1.7249857 0.13597752 0.35747945
-1.7605697 0.14652373 0.35071874
-1.7561506 0.14587216 0.35229069
-1.7451661 0.14478742 0.35555074
-1.7341447 0.14464377 0.35583723
-1.7263454 0.1444425 0.35742554
-1.7613331 0.15533391 0.35174233
-1.7548314 0.15452792 0.3515332
-1.7444834 0.15152042 0.35491905
-1.7362568 0.15399477 0.35589993
-1.7144256 0.057348717 0.36360797
-1.7069594 0.055407502 0.36776835
-1.7243813 0.064711832 0.36161274
-1.7146783 0.066075645 0.36413869
-1.7081416 0.065328144 0.36928666
-1.7216156 0.073350057 0.36079139
-1.7145243 0.074421361 0.36239281
-1.705525 0.076715939 0.36612722
-1.7113895 0.084506571 0.36074737
-1.7043672 0.085532054 0.36479563
-1.699245 0.089656748 0.36649239
-1.7113991 0.096225202 0.36093524
-1.7052336 0.095263481 0.36297202
-1.6987121 0.093019396 0.3671768
-1.7112688 0.10591167 0.36098063
-1.7050778 0.10461033 0.36304215
-1.6983942 0.10591386 0.36756399
-1.7128607 0.11437736 0.36122555
-1.7047969 0.11561988 0.36395577
-1.6974952 0.11431174 0.36832717
-1.7134886 0.12716442 0.36163789
-1.7053339 0.12527584 0.36391306
-1.6969193 0.12473076 0.36801004
-1.7148117 0.13484731 0.36183617
-1.704668 0.13594723 0.36421934
-1.6971328 0.13540253 0.36774576
-1.7235051 0.14790548 0.36100718
-1.7144521 0.14269637 0.3614133
-1.7044739 0.14177687 0.3635641
-1.6959676 0.14201649 0.36780182
-1.7042547 0.057630848 0.37408614
-1.7033396 0.064231224 0.37441376
-1.6992366 0.066280097 0.37958372
-1.7018358 0.075228587 0.3734206
-1.6982021 0.077724785 0.37776768
-1.7011859 0.084099308 0.37240002
-1.6968775 0.087081067 0.3772198
-1.6967453 0.095481537 0.37544641
-1.6958051 0.10403979 0.37534034
-1.6931431 0.11482187 0.37424272
-1.6921878 0.12556653 0.37553883
-1.6942685 0.13476643 0.37470096
-1.7013766 0.14390746 0.37738019
-1.691 0.14388354 0.37199998
-1.6958283 0.048764355 0.38803577
-1.6962589 0.057134517 0.386179
-1.6964417 0.064937003 0.38597733
-1.6962376 0.07497447 0.38435555
-1.6953557 0.084115714 0.38438585
-1.694291 0.095314831 0.38621572
-1.6950969 0.10483383 0.38655639
-1.6942707 0.11483984 0.3845973
-1.6947473 0.12525754 0.38625032
-1.6956042 0.13559288 0.3846159
-1.7029818 0.14476672 0.38382199
-1.6981094 0.1439629 0.38691476
-1.7044259 0.15285584 0.38755107
-1.699316 0.1510389 0.38784689
-1.6950636 0.049292639 0.39405897
-1.6947939 0.055312473 0.39318839
-1.6961194 0.063885108 0.39465711
-1.6960303 0.076588042 0.39502004
-1.6961982 0.086066805 0.39332068
-1.6974784 0.094999664 0.3940303
-1.6970086 0.10505507 0.39390275
-1.6964178 0.11460171 0.3933557
-1.6962734 0.12437478 0.39519113
-1.6967472 0.13449241 0.3937003
-1.6963868 0.14585873 0.39397249
-1.6960021 0.15196404 0.39425048
-1.6959804 0.046774954 0.40623862
-1.6961699 0.055553783 0.40447965
-1.7006038 0.065470777 0.40863231
-1.6976519 0.064086437 0.40233421
-1.7010616 0.077330239 0.40831372
-1.6987369 0.073452018 0.40384254
-1.7010175 0.084828749 0.40656725
-1.6988779 0.086282082 0.40243709
-1.7020135 0.095092788 0.40683079
-1.6993687 0.095727056 0.4024474
-1.7016878 0.1047248 0.40709177
-1.6993026 0.10392168 0.40253311
-1.7009718 0.11476716 0.40542144
-1.7005415 0.12501016 0.40846807
-1.6990937 0.12574527 0.40389943
-1.7010278 0.1364198 0.40523553
-1.6994709 0.13299651 0.40267649
-1.7004812 0.1425181 0.40185553
-1.6966826 0.14541334 0.40553868
-1.6934793 0.15263729 0.404984
-1.6968958 0.037009761 0.41631126
-1.697894 0.044997405 0.41508457
-1.7009102 0.056156252 0.4167816
-1.6988702 0.051666204 0.41529998
-1.7030815 0.064374253 0.41438273
-1.7043734 0.075415336 0.4147146
-1.7058645 0.085796349 0.41587967
-1.7059884 0.095468931 0.4154875
-1.7105508 0.10537065 0.41937658
-1.706625 0.10450411 0.41487297
-1.7108269 0.11871248 0.41993079
-1.7056601 0.11496829 0.41509229
-1.7046971 0.12423705 0.41484559
-1.7110102 0.13448337 0.41853157
-1.7063679 0.13495344 0.41454166
-1.7044113 0.14339212 0.41539267
-1.6970557 0.14525674 0.41229486
-1.7005752 0.15378715 0.4186317
-1.6975241 0.15241854 0.41461411
-1.7011577 0.036271062 0.4262487
-1.6990924 0.034294579 0.42345232
-1.7015373 0.043762431 0.42366675
-1.7045441 0.055524755 0.42502806
-1.7063566 0.065332063 0.42498019
-1.7067209 0.074254192 0.42437109
-1.7109728 0.088763349 0.42900655
-1.7084129 0.084859647 0.42399678
-1.7109332 0.096087582 0.42671621
-1.7090544 0.092596158 0.42440826
-1.7136346 0.10578851 0.42460823
-1.7152213 0.11513856 0.42563504
-1.7204138 0.1250952 0.42712608
-1.7155325 0.12452191 0.42304
-1.7228718 0.1351846 0.42736492
-1.7160803 0.13512839 0.422126
-1.7149978 0.1413364 0.4209173
-1.6963437 0.026789239 0.43343037
-1.7010756 0.037769534 0.43483311
-1.6986202 0.033622768 0.43536383
-1.7035887 0.044821095 0.43509433
-1.7063119 0.054643694 0.43518364
-1.7115386 0.06833934 0.43700233
-1.7092127 0.064469427 0.43477267
-1.7110666 0.076195464 0.43432382
-1.7096043 0.072875872 0.43179616
-1.7126896 0.08398588 0.43455881
-1.7145981 0.095085688 0.43530038
-1.7207574 0.10854024 0.43931738
-1.7170246 0.10506971 0.43301091
-1.721723 0.1148963 0.4360722
-1.7193638 0.11634337 0.43142456
-1.7229247 0.12599629 0.4352909
-1.719349 0.12237246 0.43008274
-1.7265311 0.13499729 0.4345583
-1.7411796 0.14399999 0.43773097
-1.7350026 0.14298545 0.43686745
-1.7009586 0.039000001 0.44203696
-1.6971604 0.036575984 0.44591507
-1.7019194 0.04361672 0.44505948
-1.705779 0.05313693 0.44487411
-1.7110863 0.066764921 0.44682279
-1.7086891 0.062306859 0.44288558
-1.7112051 0.073698729 0.44460192
-1.7099829 0.074525505 0.44796193
-1.7140166 0.085303612 0.44582659
-1.7203825 0.099252939 0.44654644
-1.7174853 0.093172766 0.44462854
-1.7214364 0.10447677 0.4443866
-1.7265943 0.11442944 0.44440827
-1.7274954 0.12392303 0.44340959
-1.7326521 0.13882433 0.44637612
-1.7282459 0.1342922 0.44412601
-1.7359188 0.14455612 0.44437724
-1.6967739 0.038355052 0.45095313
-1.7009758 0.046612542 0.45122084
-1.698842 0.04175007 0.4515202
-1.7071148 0.056659181 0.45263034
-1.7109792 0.06672322 0.45485726
-1.708513 0.062169146 0.45797107
-1.7108282 0.075346678 0.45553589
-1.7093189 0.072854891 0.45656794
-1.714313 0.086267933 0.45552295
-1.7209849 0.098664746 0.4534713
-1.7183113 0.093557611 0.4565959
-1.722199 0.10474686 0.45414701
-1.7255843 0.11502999 0.45542499
-1.7269274 0.12364258 0.45491448
-1.7329031 0.13739583 0.45518404
-1.7281871 0.13245524 0.45429048
-1.7375741 0.14336134 0.45586661
-1.7348659 0.15563111 0.45648259
-1.70691 0.064754099 0.46431533
-1.7078633 0.07463593 0.46551114
-1.71157 0.085741527 0.46274891
-1.7091093 0.083774477 0.46708331
-1.7161603 0.095038578 0.46450207
-1.7208358 0.10512238 0.46418411
-1.719004 0.10329946 0.4677268
-1.7240481 0.11522131 0.46451017
-1.7262303 0.12581514 0.46567637
-1.7322788 0.13778733 0.46369433
-1.7286891 0.13244928 0.46237311
-1.7344868 0.14584604 0.4659481
-1.7343005 0.15438709 0.46486011
-1.7286693 0.15894532 0.46496564
-1.7305677 0.16229561 0.46018279
-1.7295879 0.16282755 0.4664551
-1.7065191 0.07682512 0.47483954
-1.7115457 0.088703796 0.47245955
-1.7073686 0.085439578 0.47616822
-1.7130485 0.094738908 0.47525346
-1.7089598 0.090340614 0.47726107
-1.7205994 0.10955219 0.47288865
-1.7171369 0.10375252 0.47482866
-1.7215239 0.11416284 0.4751763
-1.7244415 0.12620619 0.47464561
-1.7271799 0.13540936 0.47425565
-1.7304363 0.14934039 0.47058481
-1.7280611 0.14651367 0.47451803
-1.7322184 0.15474238 0.47490793
-1.7285676 0.15890555 0.47550443
-1.706 0.079325646 0.48173901
-1.7055508 0.085557565 0.48498204
-1.7112842 0.09704899 0.4842113
-1.7073164 0.091796666 0.48553744
-1.7201289 0.10963381 0.48140815
-1.7155877 0.10481157 0.48515177
-1.7209209 0.1154787 0.48339975
-1.7197977 0.11703613 0.48801127
-1.7224675 0.12435009 0.48571578
-1.7260985 0.13678196 0.48349476
-1.726424 0.1449867 0.48519185
-1.731732 0.15379582 0.48115993
-1.7013891 0.07909812 0.49328062
-1.7020875 0.084817111 0.49590799
-1.7065623 0.0950564 0.49586469
-1.7119132 0.10548139 0.49338409
-1.7072353 0.10108247 0.49673051
-1.7162173 0.11475652 0.49406895
-1.7216306 0.12727956 0.49409232
-1.7189575 0.12254512 0.49668899
-1.7234511 0.13542968 0.49470562
-1.7252926 0.1432503 0.49311444
-1.6982802 0.079700507 0.50401574
-1.7009678 0.087343924 0.50256604
-1.6988246 0.083667397 0.50542593
-1.7041867 0.095018722 0.50430495
-1.6995922 0.090169422 0.50977373
-1.7108897 0.10839587 0.50382364
-1.7077901 0.10317231 0.50561494
-1.7132288 0.11520015 0.50437301
-1.7209629 0.12868929 0.50454611
-1.7168095 0.12368928 0.50667125
-1.7212776 0.13526121 0.50486577
-1.7225422 0.14406921 0.50601876
-1.6950649 0.079259992 0.51561183
-1.6966382 0.084548205 0.51471549
-1.7021351 0.095943414 0.51417297
-1.6996164 0.092135392 0.51800358
-1.7064432 0.10472221 0.51519734
-1.7110912 0.11703371 0.51121736
-1.7076421 0.11625375 0.5165444
-1.7121018 0.12521547 0.51555037
-1.7084037 0.12134118 0.51769221
-1.7200179 0.13523959 0.51146829
-1.7169788 0.1344638 0.514301
-1.7210001 0.14497076 0.51207781
-1.7189592 0.14234665 0.51649463
-1.6963224 0.087126844 0.52315515
-1.7000622 0.094218656 0.5219627
-1.6997919 0.093652986 0.52251697
-1.7047193 0.10551279 0.52168125
-1.7074593 0.11521413 0.52532768
-1.7111897 0.12520903 0.52349299
-1.7092079 0.12552637 0.52799523
-1.7120862 0.13333233 0.52567649
-1.709269 0.13115254 0.52965337
-1.7053792 0.11914414 0.53138554
-1.7067018 0.12283889 0.53173375
