# .PCD v0.7 - Point Cloud Data file format
VERSION 0.7
FIELDS x y z
SIZE 4 4 4
TYPE F F F
COUNT 1 1 1
WIDTH 393
HEIGHT 1
VIEWPOINT 0 0 0 1 0 0 0
POINTS 393
DATA ascii
0.20674585 -0.0016541968 -1.4552602
0.21372917 -0.0012199333 -1.454828
0.22441354 -0.0019312797 -1.4530218
0.23418766 -0.0033005164 -1.4518914
0.24135458 -0.0010829101 -1.4517573
0.21719185 0.0001112858 -1.453248
0.22423677 0.00026837862 -1.4509431
0.2347687 0.00014258674 -1.4517226
0.24146771 0.00059902266 -1.4500048
0.19663386 -0.00098802405 -1.4432923
0.20494567 -0.0014147819 -1.4455419
0.21650939 -0.00145812 -1.4449009
0.22362761 -0.0029766082 -1.4446901
0.2457474 -0.0026206623 -1.4465263
0.25161085 -0.0035644672 -1.4435573
0.20207907 0.00011145134 -1.4437432
0.21337807 5.8498761e-05 -1.4427074
0.22497612 0.00031958017 -1.4434558
0.23521407 0.00082803104 -1.4441551
0.24555063 0.001 -1.4436496
0.25188559 0.00026096511 -1.4434885
0.20710894 -0.0013019589 -1.4355912
0.21399261 -0.0017016752 -1.4358773
0.22525306 -0.0014196944 -1.4349207
0.23540896 -0.0013451655 -1.4333957
0.24455182 -0.0022703863 -1.4353142
0.25187308 -0.0015139363 -1.434799
0.20847778 0.00059164182 -1.4372317
0.21438515 0.0011434813 -1.4381685
0.22580361 0.00039871407 -1.4354714
0.23540919 0.0010554484 -1.4359875
0.24372223 0.00080044661 -1.4347827
0.25169742 0.00013285912 -1.4375308
0.20698117 -0.0011588024 -1.4219859
0.21517724 -0.001277306 -1.423165
0.22414921 -0.0013274753 -1.4269335
0.23481648 -0.0024384074 -1.4250965
0.2435794 -0.0024826238 -1.4258348
0.25254443 -0.0030803496 -1.4243116
0.3842133 -0.0033351027 -1.420905
0.39600846 -0.0024407178 -1.4220861
0.40406772 -0.0017780161 -1.4235808
0.41901767 -0.00080804015 -1.4206933
0.22530742 0.00075183075 -1.423749
0.23505154 0.00070605188 -1.4247528
0.24549587 0.00066163257 -1.4249706
0.25509289 0.0017252177 -1.4242116
0.26351845 0.003 -1.4212898
0.30372563 0.0042167846 -1.4210181
0.31352109 0.0045459131 -1.4211838
0.34431076 0.0040000007 -1.4223932
0.35532644 0.0039608381 -1.4217441
0.36437225 0.003570128 -1.4215912
0.37673533 0.0038797259 -1.4220593
0.38620853 0.0017105943 -1.4217964
0.39453983 0.0010649237 -1.4219695
0.40467104 0.00096471643 -1.4228235
0.41243663 0.00086308928 -1.4212371
0.18901455 -0.001 -1.4128189
0.19878116 -0.001362816 -1.4126327
0.20561486 -0.00084181619 -1.4156393
0.21419962 -0.0012559511 -1.4158977
0.22554919 -0.0026075696 -1.4144709
0.2338514 -0.0027628061 -1.4165087
0.24372639 -0.0030000003 -1.4154
0.41502988 -0.0035230541 -1.4155368
0.4263618 -0.0014695372 -1.4162322
0.43670297 -0.0027475334 -1.4131742
0.44829151 -0.0032347264 -1.413893
0.45391759 -0.0036829908 -1.4146467
0.21745171 0.0017088718 -1.4146787
0.22715147 0.0032784613 -1.4166148
0.23604092 0.0021871673 -1.4159075
0.24525258 0.0027454798 -1.4147512
0.25523746 0.0030180889 -1.415856
0.26502913 0.0037769177 -1.4126362
0.27479494 0.0036249906 -1.4138267
0.28540152 0.0031923973 -1.4132441
0.29524508 0.0031250133 -1.4141901
0.30588529 0.003829807 -1.4151039
0.3156738 0.004001129 -1.4156055
0.32571435 0.0039942754 -1.4170985
0.33337468 0.0040000002 -1.4164674
0.35821936 0.0040000002 -1.4130353
0.36281782 0.0039867791 -1.4159522
0.37740684 0.003859052 -1.4135451
0.38453019 0.0015559423 -1.4159569
0.39413649 0.00076306763 -1.4131432
0.40424639 0.0012912306 -1.4144824
0.41403386 0.00085451314 -1.4150286
0.42501506 0 -1.411677
0.43470627 0.00041013039 -1.4114583
0.44349077 0.00088164082 -1.4119147
0.20498618 -0.0010379875 -1.4081899
0.21313792 -0.00099404005 -1.408281
0.22516397 -0.0015578617 -1.4053091
0.23572592 -0.0022509226 -1.4061497
0.24445009 -0.0022803752 -1.4042075
0.25544792 -0.0029603816 -1.4051756
0.45654538 -0.0035679294 -1.40364
0.46400365 -0.0022392799 -1.405318
0.47572318 -0.0035772247 -1.4055556
0.48459071 -0.0023776502 -1.4047364
0.49293634 -0.001184558 -1.4028435
0.21802865 0.0031305726 -1.4066151
0.22487158 0.0034521138 -1.4071554
0.23519272 0.0034518735 -1.4054877
0.24434412 0.0034644241 -1.4047332
0.2535263 0.0042498643 -1.4047812
0.26489878 0.0048322878 -1.4046813
0.27586234 0.0047623944 -1.4048953
0.28507721 0.0046260501 -1.4062333
0.29530489 0.0048326352 -1.4055326
0.30444279 0.0048027011 -1.4065051
0.31457961 0.0043780426 -1.4060116
0.3257488 0.0040363297 -1.4057565
0.33601731 0.0040216176 -1.405444
0.34574383 0.0040502483 -1.4057481
0.3552714 0.0033589795 -1.405001
0.36501059 0.0029459281 -1.4060428
0.37552315 0.0017301682 -1.4054319
0.38426933 0.001290987 -1.4048409
0.39521506 0.00069870742 -1.4040836
0.40398034 0.00050790492 -1.4051268
0.41329139 0.00092299783 -1.4063845
0.42513287 0 -1.4052789
0.43385184 0.00020764068 -1.4054191
0.44401175 0.00064698083 -1.4064816
0.45431647 0.00027878882 -1.4075651
0.46304679 0 -1.4065489
0.47323251 0 -1.4057169
0.19834904 -0.0010023931 -1.3925161
0.20534602 -0.00089136034 -1.3930287
0.21404402 -0.00096084218 -1.3931644
0.22607754 -0.0018011929 -1.3961349
0.23445934 -0.0016697982 -1.3955917
0.24649505 -0.0014034994 -1.3961809
0.25469616 -0.0023455154 -1.3940741
0.40623513 -0.0026575821 -1.3962561
0.42494282 -0.0024636921 -1.3977168
0.43401957 -0.00090313406 -1.3989387
0.45340839 -0.0015961531 -1.3987343
0.47370046 -0.0034321565 -1.3981631
0.21809609 0.00050069293 -1.3921732
0.22416078 0.0011906121 -1.393775
0.23467736 0.0011242537 -1.392731
0.24482051 0.00061695423 -1.3951207
0.25555089 0.0024977454 -1.3958566
0.26639041 0.0036256115 -1.3952156
0.27448484 0.0036430461 -1.3949187
0.28470489 0.0039538033 -1.394134
0.2956453 0.0042013861 -1.3953801
0.3049939 0.0045084003 -1.3953315
0.31383073 0.0044081332 -1.3956819
0.32464352 0.0041193124 -1.3956591
0.33469275 0.004471764 -1.3959346
0.34636435 0.0047603813 -1.3948183
0.35543376 0.003701821 -1.3955534
0.36505663 0.0019462311 -1.3948846
0.37496948 0.0016860459 -1.395245
0.38575613 0.0016948478 -1.394821
0.39510068 0.0015972656 -1.3955845
0.40481815 0.0014396174 -1.3940723
0.41375214 0.0011014204 -1.3942658
0.19871691 -0.00097817159 -1.387435
0.2045396 -0.0010171192 -1.3854493
0.21398704 -0.0011734976 -1.3864233
0.2250167 -0.002812183 -1.3851277
0.23670632 -0.0020406223 -1.3850569
0.24502893 -0.0018946559 -1.3835639
0.25428355 -0.0020576417 -1.3830514
0.30490673 -0.0032865615 -1.3847528
0.32597098 -0.0032228988 -1.3855362
0.34503126 -0.002864426 -1.3870133
0.35479048 -0.0025089916 -1.387838
0.36369863 -0.0027414884 -1.3878716
0.37540042 -0.0023533895 -1.3856592
0.3847971 -0.0022707495 -1.3872514
0.39512995 -0.0020236778 -1.386471
0.40502191 -0.0015504865 -1.38556
0.41680545 -0.0014387399 -1.3876171
0.42484674 -0.0034040462 -1.3851291
0.21913868 0.00085597695 -1.3846049
0.22589234 0.0016430794 -1.3849266
0.23368014 0.0026716182 -1.3864017
0.24501488 0.0012171483 -1.3844721
0.25516272 0.0019775003 -1.3857528
0.26448935 0.0037256016 -1.3874005
0.27520508 0.0040547145 -1.386171
0.28494212 0.0037640159 -1.3848504
0.29564092 0.0039732847 -1.3856696
0.30584818 0.0034579069 -1.3841457
0.31492826 0.0038984965 -1.3858116
0.32467404 0.0031026714 -1.385017
0.33624578 0.0037345714 -1.3849008
0.34479991 0.0034367417 -1.3862768
0.35445294 0.0021212436 -1.3879933
0.36411566 0.0010761763 -1.387795
0.37528998 0.0018313003 -1.3878901
0.38651004 0.0013107952 -1.3873018
0.39514369 0.0027294881 -1.3887116
0.40545541 0.0024704589 -1.3878602
0.41388756 0.0021451581 -1.3883061
0.21601908 -0.0010206078 -1.378125
0.22553974 -0.0011231593 -1.377167
0.23330532 -0.00096871058 -1.3779682
0.25876239 -0.00084291375 -1.3735574
0.26668474 -0.0010023369 -1.3764318
0.27503023 -0.0010782377 -1.3760165
0.28553256 -0.0012279551 -1.375664
0.29529613 -0.00097141776 -1.3751658
0.30462521 -0.00094735035 -1.3740516
0.31481272 -0.0012486925 -1.3771744
0.32702577 -0.0011411003 -1.3731707
0.33696759 -0.0017553874 -1.3751347
0.34358877 -0.0025284321 -1.3761115
0.3543821 -0.0018803261 -1.376058
0.36498931 -0.0010143885 -1.3744074
0.38458049 -0.0028426973 -1.374529
0.42547494 -0.0034607751 -1.3778284
0.22369461 0.00016918033 -1.3788459
0.26030344 0.00031035577 -1.3799725
0.27565548 0.0011048639 -1.3797818
0.28378826 0.0012096444 -1.3788171
0.29164913 0.0014826184 -1.3792065
0.30727479 8.9711801e-05 -1.3763443
0.31541294 0.00036748612 -1.3782729
0.3384788 0.00054173119 -1.3757385
0.3449358 0.0012098472 -1.37552
0.35461679 0.00051054335 -1.3752794
0.36303553 0.00039303777 -1.3719907
0.37968525 0.00030002024 -1.374126
0.38638693 0.00086472725 -1.3727814
0.39437535 0.00097616174 -1.3718786
0.23861375 -0.001 -1.3679137
0.2447387 -0.0010058263 -1.3677887
0.25415829 -0.0019976788 -1.3664371
0.2642715 -0.0026321064 -1.3646983
0.27510634 -0.0019866519 -1.3658838
0.28560141 -0.0019016174 -1.3661478
0.29529864 -0.0019212376 -1.3663405
0.30555987 -0.0016930258 -1.3666394
0.31487593 -0.001686973 -1.3665562
0.32465833 -0.0021484445 -1.3658334
0.33501527 -0.0014782347 -1.366004
0.34569526 -0.0026082722 -1.3648397
0.35485452 -0.0024584983 -1.3650587
0.36468941 -0.0027465271 -1.3636547
0.37442616 -0.0025783805 -1.365118
0.38429207 -0.0026194486 -1.3644904
0.39527985 -0.0025936328 -1.3653576
0.40561411 -0.0022229294 -1.3662896
0.41669023 -0.0015200934 -1.3659723
0.42543149 -0.0012851658 -1.3656906
0.43501121 -0.001361786 -1.3649839
0.44406289 -0.0010119372 -1.3649057
0.45414734 -0.0012318924 -1.3635671
0.25567976 0.00079471554 -1.3652452
0.26532823 0.00133161 -1.3659625
0.27408931 0.00097954494 -1.3635999
0.2849001 0.0013922649 -1.3633517
0.29535469 0.0013607811 -1.3630452
0.30326593 0.0017602626 -1.3647738
0.31503367 0.0014735339 -1.3626032
0.32492331 0.00077069103 -1.3641466
0.33514553 0.00090276299 -1.3623621
0.34508163 0.0011504515 -1.3644869
0.35393661 0.00099775963 -1.3649919
0.36427227 0.0020417443 -1.3642416
0.37362581 0.0016165586 -1.3658923
0.38436222 0.0019187164 -1.3654189
0.39438817 0.0017867927 -1.3637828
0.40582865 0.0011472676 -1.3657773
0.41359073 0.0015624779 -1.3635502
0.42543086 0.00040006731 -1.3627638
0.43372387 0.0001947151 -1.3645782
0.44612592 0 -1.3621905
0.45314279 0.00030463436 -1.3626553
0.24899998 -0.00099999993 -1.3529058
0.2530311 -0.00095600111 -1.3551036
0.26524505 -0.0017324801 -1.3541687
0.27578732 -0.0016236865 -1.3546644
0.28603584 -0.0019220263 -1.3535794
0.29636014 -0.001465775 -1.3540602
0.30424073 -0.0017997678 -1.3552871
0.31416482 -0.0030510374 -1.3571686
0.3252247 -0.0021444105 -1.3546981
0.33520943 -0.0027314785 -1.3555295
0.36424646 -0.0031251053 -1.3546959
0.39553466 -0.0029837505 -1.3561904
0.40553981 -0.002957738 -1.3549861
0.41594639 -0.0029276772 -1.35551
0.42501631 -0.0024884564 -1.3549225
0.43488631 -0.0023528759 -1.3554751
0.44506669 -0.0012977333 -1.3565303
0.45437527 -0.0017136019 -1.3560842
0.25686368 0.00047890117 -1.3560106
0.2652947 0.0003184489 -1.3551375
0.27426735 0.00069809705 -1.3548056
0.28494737 0.0012880344 -1.3563099
0.29359379 0.00053550652 -1.3553056
0.30368578 0.0017156141 -1.3583007
0.31368348 0.0010761658 -1.3572403
0.32663742 0.0012112709 -1.3560921
0.33462629 0.0015899986 -1.3548838
0.34398186 0.0022392885 -1.3545282
0.35487953 0.0021968561 -1.3548409
0.36369714 0.0020948618 -1.355718
0.37451428 0.0021266581 -1.3551401
0.38393703 0.0022476683 -1.3546802
0.3952027 0.0018141749 -1.3551762
0.4049699 0.0020000001 -1.3550634
0.41463423 0.0025044605 -1.3541187
0.42482728 0.0020115441 -1.3551271
0.43535274 0.0017509313 -1.3552399
0.44641104 0.0010092239 -1.3546942
0.45326114 0.00091004977 -1.3535372
0.25416511 -0.0011549456 -1.3496597
0.26872811 -0.00062783062 -1.3490393
0.27124381 -0.0008144186 -1.3491676
0.28234214 -0.0010030604 -1.3488886
0.29479665 -0.00093846989 -1.3473172
0.30560037 -0.00087660586 -1.347674
0.31615946 -0.0010619315 -1.3453386
0.32466459 -0.0014130414 -1.3463764
0.33592057 -0.001434183 -1.3452982
0.34540692 -0.0022688347 -1.3446088
0.35455167 -0.0017626473 -1.3432485
0.3646574 -0.0023028236 -1.3441024
0.37447518 -0.002536779 -1.343663
0.3854458 -0.0030182854 -1.3446215
0.39499745 -0.0031077738 -1.3446598
0.40348813 -0.0016552508 -1.3446348
0.4165045 -0.0013973594 -1.3447698
0.42580119 -0.0015056106 -1.3445461
0.43462697 -0.0011739262 -1.3444191
0.44477949 -0.0024203316 -1.3476298
0.45395157 -0.0013568023 -1.3481148
0.29567379 0 -1.3490955
0.31888372 0.00025292588 -1.3460324
0.32547724 0.00021955953 -1.3482249
0.33812034 0.0015791442 -1.3484447
0.34644213 0.0014355582 -1.346801
0.35619107 0.0016906294 -1.3473339
0.36469752 0.0016168742 -1.3471999
0.37438086 0.0016986069 -1.3462833
0.38542214 0.0012937394 -1.3449507
0.39448014 0.0014772095 -1.3460066
0.40519413 0.0013340084 -1.3473015
0.41312218 0.0013987903 -1.3479557
0.42569345 0.0017260701 -1.3483303
0.43521589 0.001323447 -1.3483506
0.44439498 0.0010273973 -1.3472581
0.45275265 0.001275429 -1.3478501
0.3353627 -0.00089781225 -1.3349864
0.34462756 -0.0010940018 -1.3333826
0.35332796 -0.0013434276 -1.3334002
0.3648757 -0.00082855631 -1.3346758
0.3750197 -0.00098120573 -1.3355793
0.38530478 -0.0013115663 -1.3340523
0.39614794 -0.0015174542 -1.3337599
0.40571067 -0.0011599438 -1.3349355
0.41334143 -0.001340339 -1.335149
0.42591473 -0.0017061228 -1.3352923
0.43572271 -0.0014539062 -1.3361064
0.44414979 -0.0014042368 -1.3348607
0.45559475 -0.0013302476 -1.3360732
0.46517026 -0.0010053972 -1.3372498
0.47544578 -0.0010020683 -1.3380142
0.48288435 -0.0010095786 -1.3383793
0.34838593 0.00010909354 -1.3315997
0.35587913 0.00055591972 -1.3333387
0.36487651 0.0001244005 -1.3318263
0.37509477 0 -1.3314705
0.38410446 0.00057082827 -1.3368009
0.39517963 0.0005426422 -1.3372903
0.40318584 0.00027407199 -1.3353883
0.41663462 0.00098608399 -1.3339568
0.42368919 0.0013767824 -1.3343259
0.43436521 0.002286237 -1.3338858
0.44426331 0.00091850758 -1.3351022
0.45384344 0.00097574206 -1.3346854
0.33779693 -0.00090816926 -1.3281164
0.34426647 -0.0010126423 -1.3281204
0.35478073 -0.0012358197 -1.3268719
0.36475688 -0.00096755789 -1.3275888
0.37606585 -0.00083568541 -1.3281026
0.38191032 -0.001 -1.3295251
0.42595941 -0.0010709564 -1.3295338
0.34840763 0.00041403485 -1.3299488
0.35591164 0.00084214704 -1.3281277
0.36329344 0.000892682 -1.328482
0.37479246 0 -1.3282372
