# .PCD v0.7 - Point Cloud Data file format
VERSION 0.7
FIELDS x y z
SIZE 4 4 4
TYPE F F F
COUNT 1 1 1
WIDTH 281
HEIGHT 1
VIEWPOINT 0 0 0 1 0 0 0
POINTS 281
DATA ascii
-0.30320269 0.016420804 -1.6223068
-0.29550233 0.017030649 -1.6220531
-0.28640905 0.018278714 -1.6211975
-0.32082152 0.013828608 -1.6127739
-0.31425691 0.01323424 -1.6144587
-0.30536506 0.01399033 -1.6160219
-0.29525632 0.014866783 -1.6141543
-0.28592992 0.01633613 -1.6141038
-0.40517059 0.0062090708 -1.6038316
-0.39609942 0.008285745 -1.6032706
-0.33028808 0.0071224528 -1.6071885
-0.32422721 0.0085662575 -1.6041541
-0.31575418 0.0090805478 -1.6022875
-0.30474201 0.0092980787 -1.6002959
-0.31420806 0.011174308 -1.6067418
-0.3054308 0.011636842 -1.6064726
-0.29604506 0.012552188 -1.6068512
-0.28485039 0.012936414 -1.6056727
-0.27442077 0.013418872 -1.6034769
-0.26250452 0.01326243 -1.6024327
-0.25887084 0.012777336 -1.6024435
-0.41197503 0.0050086915 -1.5932932
-0.40496424 0.0055852192 -1.5959152
-0.39535743 0.0057273279 -1.5940646
-0.38830823 0.0077859974 -1.5960371
-0.33103004 0.0041602137 -1.5933877
-0.32531166 0.0058898404 -1.5943809
-0.31423983 0.0069143958 -1.5936252
-0.30557689 0.0080923624 -1.5967019
-0.29528409 0.0089168344 -1.5948591
-0.28674036 0.0090407785 -1.5929468
-0.2777566 0.0095318407 -1.5914457
-0.26128891 0.0090376716 -1.5907383
-0.2563867 0.0092766024 -1.5908477
-0.24970034 0.0098478384 -1.591764
-0.29377145 0.010098638 -1.5998311
-0.28525567 0.010047534 -1.5969415
-0.27491361 0.010472444 -1.5960747
-0.26542225 0.0114458 -1.5966556
-0.25865716 0.010416353 -1.5942755
-0.23702371 0.010063042 -1.5906577
-0.41268402 0.0040191961 -1.5847461
-0.40478659 0.0039499006 -1.5854421
-0.39668435 0.0041336259 -1.5844142
-0.38673913 0.0055970163 -1.5846677
-0.37772757 0.0058945874 -1.5813797
-0.36487374 0.0064826407 -1.5809649
-0.3560915 0.0067326613 -1.5816633
-0.3430658 0.0048250337 -1.5811045
-0.33291566 0.0038547218 -1.5837208
-0.32456294 0.0040123672 -1.5842961
-0.31463245 0.004310485 -1.5831699
-0.30462256 0.0059098913 -1.5856401
-0.29517445 0.0057581062 -1.5838255
-0.28353608 0.0072191209 -1.5846471
-0.27446595 0.0079533961 -1.5854367
-0.26533052 0.0084252078 -1.5858375
-0.25427952 0.0081240796 -1.5860811
-0.24486145 0.0088278884 -1.5857069
-0.23550354 0.0090390043 -1.5849776
-0.22668245 0.0092026722 -1.5826819
-0.21521328 0.0087218788 -1.5815965
-0.20533958 0.0089889467 -1.5818105
-0.17621164 0.0073103607 -1.5806322
-0.1666559 0.0063935388 -1.5819157
-0.15068847 0.0010412447 -1.5829312
-0.14641646 6.2415056e-05 -1.5814378
-0.41300082 0.0037803128 -1.575003
-0.40461513 0.003243706 -1.5744063
-0.39622253 0.0037569939 -1.5764657
-0.38552207 0.0041657435 -1.5742967
-0.3739191 0.0041453145 -1.5737636
-0.365275 0.0047647771 -1.5745236
-0.3547956 0.0056288955 -1.5751054
-0.34329998 0.0039079743 -1.574847
-0.33610314 0.0032247475 -1.5751183
-0.32343879 0.0022065726 -1.5741833
-0.31474203 0.0028748713 -1.5747855
-0.30424431 0.0036929732 -1.5759711
-0.29541251 0.0040491223 -1.5748005
-0.28573874 0.0044206139 -1.5737835
-0.27347332 0.0058262162 -1.5758457
-0.26504284 0.0065192813 -1.5731957
-0.25423053 0.0073382063 -1.5763915
-0.24535246 0.0076671583 -1.5740061
-0.23450424 0.0083742002 -1.57537
-0.22618021 0.008621511 -1.575474
-0.21579881 0.0085018566 -1.5746154
-0.20851895 0.0087810662 -1.5752428
-0.19352689 0.007673787 -1.5712938
-0.18578723 0.0054742228 -1.5717707
-0.17506514 0.0063880351 -1.5752766
-0.16654965 0.0057770633 -1.5745784
-0.15400714 0.0050128344 -1.5749425
-0.14675234 0.0032315694 -1.5737497
-0.33098298 -0.00035959226 -1.5661017
-0.32964706 -0.00031138171 -1.5615246
-0.15376325 -0.0027464002 -1.5649385
-0.40360415 0.0027175748 -1.5639089
-0.39452356 0.0036037534 -1.5652649
-0.38444519 0.0043077413 -1.5647545
-0.37520221 0.0045898096 -1.5663056
-0.36523464 0.0041550864 -1.5657815
-0.35509712 0.0039347182 -1.5655311
-0.34584001 0.0028181737 -1.5651021
-0.33536792 0.0011606271 -1.5647776
-0.32588857 0.00063209503 -1.5641291
-0.31550708 0.00059622183 -1.5646725
-0.30533656 0.0015611968 -1.564662
-0.29442754 0.0026981719 -1.5654062
-0.28572899 0.0038240741 -1.5656947
-0.27447981 0.0038137101 -1.5651386
-0.2654075 0.0046273977 -1.5634012
-0.25528634 0.005362479 -1.5645659
-0.24446845 0.0060352716 -1.5644523
-0.23582159 0.0063140844 -1.5645102
-0.22523567 0.0063926019 -1.5642396
-0.21536994 0.0065555042 -1.5658574
-0.20537177 0.007284685 -1.5657871
-0.19427073 0.0065940781 -1.5650489
-0.183588 0.005043319 -1.5641518
-0.17466415 0.00437858 -1.5640911
-0.16505322 0.0047100242 -1.5657783
-0.15359478 0.0035868092 -1.5651095
-0.14648929 0.0033914929 -1.5646918
-0.31585062 -0.0021390852 -1.5543575
-0.304905 -0.0012299161 -1.5559174
-0.29669377 -0.0011838166 -1.55397
-0.28572157 -0.00059076451 -1.5524693
-0.27678046 -0.00064041367 -1.5503621
-0.41568467 0.0040000002 -1.555722
-0.40413257 0.0031145439 -1.5553669
-0.39523146 0.004630175 -1.5551146
-0.3862046 0.0050614639 -1.5541066
-0.3743386 0.0056295805 -1.5541884
-0.36402556 0.004133191 -1.5551553
-0.35497379 0.0021866618 -1.5550301
-0.34595221 0.001169691 -1.5571404
-0.33828908 0.0010540937 -1.5598898
-0.32142988 2.6488153e-05 -1.5582812
-0.31939459 0.00032051161 -1.5596025
-0.3075673 0 -1.5589505
-0.29244971 5.2198935e-05 -1.5567055
-0.28606984 0.00077356765 -1.5575172
-0.27484483 0.00091578264 -1.554927
-0.26488796 0.0023732169 -1.5556808
-0.2547445 0.0038565511 -1.555115
-0.24511942 0.0048156651 -1.5550947
-0.23536545 0.004759341 -1.5538638
-0.22498707 0.0051297918 -1.5548905
-0.21465223 0.0047509898 -1.5563151
-0.20433794 0.0053295051 -1.553719
-0.19570738 0.0053291768 -1.5549591
-0.18596706 0.005063456 -1.5537871
-0.17436413 0.0044134925 -1.5548351
-0.16533776 0.0036546034 -1.5549475
-0.15350412 0.0037133649 -1.55507
-0.14938113 0.0037228859 -1.5583001
-0.40637386 -0.00053434266 -1.5436791
-0.35132873 -0.0010223078 -1.5479944
-0.28522801 -0.0017293094 -1.5439676
-0.27637917 -0.0010069989 -1.5453668
-0.26543522 -0.00050936081 -1.5467151
-0.4059236 0.001260194 -1.548584
-0.39471233 0.0017820612 -1.545548
-0.38363147 0.0032772832 -1.546059
-0.37578526 0.0044620475 -1.5437789
-0.36434808 0.0047154594 -1.5438126
-0.35480854 0.0037523408 -1.5453618
-0.34889677 0.0020138538 -1.5435766
-0.271413 0.00062873447 -1.5430017
-0.26391912 0.00022999072 -1.5455949
-0.2541379 0.00054942654 -1.5448605
-0.24435078 0.0019290609 -1.5457829
-0.23569739 0.0025993111 -1.5466111
-0.22479458 0.0037140585 -1.5475217
-0.21423797 0.0037593602 -1.5460693
-0.20493732 0.0032378486 -1.5455133
-0.1952081 0.0034532191 -1.5464545
-0.18413287 0.0034168614 -1.5459107
-0.17568853 0.002784898 -1.5455352
-0.1640231 0.0028464755 -1.5465353
-0.15688224 0.0031685685 -1.5481596
-0.29488531 -0.0023564969 -1.5367479
-0.28415278 -0.0012914748 -1.5352781
-0.27612132 -0.0013291556 -1.5357277
-0.26404697 -0.00108628 -1.5345824
-0.25486618 -0.00073902053 -1.5345083
-0.24546666 -0.00023867279 -1.5307971
-0.1823201 -0.001123392 -1.5317793
-0.17447253 -0.0019303267 -1.5366693
-0.16469826 -0.0016351229 -1.536147
-0.15470488 -0.0015032693 -1.5360169
-0.14374317 -0.0014883321 -1.536181
-0.40455613 0.00092619419 -1.5353479
-0.39570126 0.00093671953 -1.5352136
-0.38556272 0.0022835867 -1.5345479
-0.37455595 0.0031883251 -1.5361363
-0.36578658 0.003413626 -1.5361772
-0.35564715 0.0019232514 -1.5358276
-0.34769815 0 -1.5388038
-0.25247484 0.00024722281 -1.5392361
-0.24437866 0.00045194704 -1.5355327
-0.23522139 0.0012221339 -1.5348712
-0.22628322 0.0017190865 -1.5353031
-0.21548493 0.0025138974 -1.5354992
-0.20440678 0.0017965048 -1.5348983
-0.19505189 0.0017726333 -1.5353686
-0.18631102 0.0021945075 -1.5346254
-0.17806724 2.5166722e-05 -1.5379474
-0.16674685 0.00070125592 -1.5379999
-0.39363649 -0.00069231802 -1.5234458
-0.38901043 -0.00081513362 -1.5216373
-0.34674323 -0.001298645 -1.5250734
-0.25465325 -0.0026994061 -1.5249984
-0.24530989 -0.0012870999 -1.5261348
-0.23547779 -0.00091019162 -1.524968
-0.22499429 -0.00064267876 -1.5240561
-0.21752213 -0.00064839085 -1.5230619
-0.19388975 -0.0010956051 -1.5241312
-0.40466538 0.00073513045 -1.5255423
-0.39627397 0.00043108672 -1.5273892
-0.3837522 0.0011532614 -1.5258492
-0.37626305 0.001054425 -1.5262154
-0.36578938 0.00036670035 -1.5255653
-0.35680243 0.00065444544 -1.5246881
-0.21502027 0.00047561928 -1.5275762
-0.206341 0.00052326598 -1.5266283
-0.19322126 0.00088975101 -1.52967
-0.40235955 -0.00066888507 -1.5143435
-0.39498898 -0.0010538885 -1.5151241
-0.38864422 -0.00045402435 -1.5193192
-0.24300805 -0.0013376507 -1.5132684
-0.2345697 -0.0010239187 -1.5146836
-0.22405362 -0.00044019904 -1.5151201
-0.21387117 -0.00037688174 -1.5153092
-0.20286617 -0.002944363 -1.5161495
-0.19345492 -0.0013381726 -1.5153043
-0.18486957 -0.0028920858 -1.5143112
-0.385241 0.0015581659 -1.5153716
-0.37495232 0.0027509297 -1.5152632
-0.36328197 0.0011499064 -1.5143701
-0.3574439 0.0011948516 -1.5149742
-0.22023867 0 -1.5151131
-0.40461108 -0.0002014254 -1.504215
-0.39487612 -0.00059880386 -1.5047948
-0.38924956 -0.00065655069 -1.5027405
-0.4034811 0.00040091175 -1.506032
-0.39917386 0.00067231193 -1.5025405
-0.3849653 0.00088847504 -1.5063853
-0.37585828 0.0014987019 -1.5041325
-0.36517805 0.0017218316 -1.5050691
-0.35345417 0.0020882224 -1.5049731
-0.34726167 0.0014525456 -1.504333
-0.39323944 -0.0013696364 -1.4953111
-0.38597751 -0.0020615545 -1.4951085
-0.3659226 -0.00011281365 -1.4922811
-0.40186968 0.0014196286 -1.4950906
-0.39687204 0.00079997984 -1.4928246
-0.38184866 0.00085969211 -1.4949105
-0.37580606 0.0017209129 -1.4948205
-0.3661105 0.00077248696 -1.494873
-0.35407239 0.0032897026 -1.4968817
-0.34884751 0.0014117837 -1.494632
-0.39555368 -0.0014754822 -1.4845099
-0.38506556 -0.001659132 -1.4854883
-0.37104008 -0.0010559094 -1.4879131
-0.36742315 -0.00051766954 -1.4860634
-0.40007812 0.00031966349 -1.4847211
-0.38042605 0.00042687071 -1.486856
-0.37422201 0.00034732421 -1.4849042
-0.36506975 0.0002713461 -1.4827902
-0.35508129 0.00099306251 -1.4854004
-0.40031415 0.00086283567 -1.4746861
-0.39790559 0.00072027853 -1.4756266
-0.38097814 0.00015256993 -1.4787629
-0.37555903 0.00010615022 -1.4789717
-0.36144263 0.00077308959 -1.4775252
-0.35560545 0.00073413394 -1.4759116
-0.34891376 0.00058275228 -1.4759703
-0.40019101 0.00047990924 -1.4662086
