# .PCD v0.7 - Point Cloud Data file format
VERSION 0.7
FIELDS x y z
SIZE 4 4 4
TYPE F F F
COUNT 1 1 1
WIDTH 1359
HEIGHT 1
VIEWPOINT 0 0 0 1 0 0 0
POINTS 1359
DATA ascii
0.12269395 0.034396287 -0.097677603
0.42917126 0.035669062 -0.098147579
0.43201447 0.03440135 -0.092761241
0.10973385 0.042834409 -0.090186767
0.11593644 0.04520851 -0.094021089
0.12296611 0.043593399 -0.098495714
0.42787176 0.044843804 -0.094901331
0.43076378 0.040664233 -0.091926262
0.11635082 0.055094257 -0.093129285
0.12317725 0.056351263 -0.097908072
0.41937688 0.059664328 -0.099770397
0.42385766 0.054584373 -0.09541709
0.11716983 0.061775111 -0.091141142
0.12517814 0.065048344 -0.094553977
0.13331829 0.068076782 -0.098433264
0.41839024 0.06564568 -0.094703056
0.42080134 0.061395396 -0.094903544
0.12664285 0.070171714 -0.091471136
0.13524786 0.074820094 -0.093866222
0.14223921 0.077535048 -0.096658885
0.40922365 0.079295568 -0.097071499
0.41325161 0.074489735 -0.094754048
0.14709009 0.083172053 -0.094782591
0.15509868 0.087631904 -0.096935377
0.1606918 0.089772858 -0.099918947
0.40613365 0.085615501 -0.095059246
0.41101283 0.080847405 -0.090196759
0.15790002 0.093080677 -0.093139052
0.16470148 0.095985189 -0.095756859
0.17246139 0.099274173 -0.098191276
0.3967573 0.096487246 -0.095893025
0.4021776 0.091210902 -0.093940407
0.16697797 0.10084916 -0.091199741
0.1759762 0.1038699 -0.094856873
0.18548128 0.10794552 -0.094511963
0.19228341 0.10907355 -0.098249771
0.37826622 0.10923738 -0.098535493
0.38522691 0.10645504 -0.095119424
0.39179561 0.10228724 -0.093785532
0.1886951 0.11038198 -0.091740176
0.1974891 0.11221125 -0.093916066
0.20448929 0.11412855 -0.095557444
0.21597971 0.11785765 -0.094861083
0.22273064 0.11923379 -0.09689153
0.35748276 0.11892561 -0.096879125
0.36584765 0.11640516 -0.09482637
0.3745259 0.11345275 -0.093242824
0.38246045 0.11012054 -0.090101704
0.22558112 0.12110817 -0.093058452
0.2359163 0.12386213 -0.09466628
0.24478482 0.12557317 -0.09579087
0.25569928 0.12769566 -0.094969489
0.2649093 0.12893781 -0.094997004
0.27174836 0.12964185 -0.097436599
0.28475395 0.12983805 -0.099215604
0.29731882 0.12913465 -0.097800918
0.30610999 0.1290649 -0.095331311
0.31553483 0.12748301 -0.094672509
0.32642007 0.12598464 -0.095437393
0.33507875 0.12424144 -0.096096747
0.34379598 0.12360585 -0.093713462
0.35451782 0.12101954 -0.093114629
0.26818249 0.13035406 -0.090412214
0.27477112 0.13060348 -0.093897127
0.28506622 0.13067825 -0.09364567
0.2959241 0.13018954 -0.092357196
0.30054578 0.13 -0.092083417
0.11214283 0.0075387922 -0.087476075
0.43873698 0.0061976165 -0.086305931
0.10804829 0.015015803 -0.081923045
0.11505523 0.014621884 -0.087476432
0.4380742 0.013970539 -0.083787851
0.44015008 0.010918726 -0.080443621
0.10532995 0.025455078 -0.083191343
0.11285957 0.024445435 -0.087641023
0.43680057 0.024043312 -0.084913947
0.099188052 0.037131995 -0.081789061
0.10705774 0.035320029 -0.086840965
0.11232195 0.032271113 -0.089647397
0.43465793 0.034982044 -0.086482532
0.099281959 0.044723108 -0.081998989
0.1054007 0.046193998 -0.08655896
0.42892936 0.048841596 -0.088781074
0.43327078 0.045107216 -0.083295725
0.09847571 0.051161472 -0.08004342
0.10513403 0.055257134 -0.08438088
0.11199956 0.057330761 -0.089197412
0.42760316 0.055404242 -0.085397534
0.43082076 0.050042666 -0.083922789
0.10860854 0.064441249 -0.082113624
0.11521064 0.06549333 -0.086015843
0.12239069 0.069155097 -0.088235579
0.41920826 0.06900347 -0.087795213
0.42272827 0.065255217 -0.084537514
0.11856677 0.073358275 -0.08120849
0.12574893 0.075350456 -0.085088983
0.13344525 0.079004526 -0.087741822
0.41724721 0.074507743 -0.085161023
0.13596167 0.084012203 -0.084321998
0.14376044 0.087233141 -0.086744428
0.40897778 0.08738222 -0.084516086
0.41299978 0.081430838 -0.084560156
0.14719217 0.092502832 -0.083387181
0.15488841 0.096681267 -0.085330002
0.16221265 0.099054128 -0.089222617
0.39900729 0.098885633 -0.087917209
0.40360782 0.094471276 -0.085049629
0.15695135 0.10076381 -0.081305638
0.16604008 0.10373629 -0.084417142
0.1753736 0.10772156 -0.084992491
0.18144201 0.1089129 -0.088396721
0.38762799 0.10923069 -0.084557027
0.39412728 0.10441642 -0.08524254
0.17828259 0.11002278 -0.082168683
0.18600319 0.11176829 -0.084070422
0.19484417 0.11395732 -0.085435286
0.20658843 0.11781918 -0.084241621
0.21237585 0.11889365 -0.086814836
0.36652175 0.11883131 -0.086589448
0.37616381 0.11553902 -0.085925467
0.3827877 0.11308665 -0.082396582
0.21555184 0.12079287 -0.084326603
0.2250765 0.12321425 -0.084014572
0.23391581 0.12493662 -0.087080583
0.24649388 0.12837833 -0.083602205
0.25369996 0.12899885 -0.087508455
0.26497102 0.12993136 -0.089314148
0.31599876 0.12915498 -0.087647744
0.3246164 0.12886648 -0.084403746
0.33595866 0.12717755 -0.084684871
0.34610465 0.12493573 -0.086179405
0.35484123 0.12323063 -0.084739685
0.36304966 0.12101932 -0.083203852
0.25712782 0.13039961 -0.083752148
0.26540822 0.13130371 -0.083202973
0.27536947 0.13211367 -0.084657699
0.28490853 0.13264328 -0.084137768
0.29485947 0.1317454 -0.085709274
0.30554444 0.13087557 -0.084670916
0.31060982 0.13059284 -0.083425976
0.10280595 0.0081456676 -0.077199936
0.089101605 0.018902902 -0.070041768
0.096357301 0.015874362 -0.073680088
0.10372721 0.014217307 -0.077794589
0.44286257 0.014907235 -0.074514285
0.089093164 0.025364142 -0.072366223
0.095776543 0.025118377 -0.076509148
0.10082883 0.023021001 -0.079070434
0.43942642 0.027862899 -0.079231739
0.44223741 0.024205064 -0.073988907
0.087590523 0.034485959 -0.07239642
0.093653604 0.035607643 -0.077561013
0.43870127 0.035572283 -0.077316351
0.44155887 0.033472382 -0.071915358
0.088459626 0.044338841 -0.072272591
0.093826011 0.043498166 -0.077178225
0.43703705 0.04511879 -0.074278101
0.095137902 0.055615358 -0.075199366
0.42921671 0.058312964 -0.078151934
0.43323573 0.053012859 -0.075242318
0.096987039 0.063314363 -0.071879096
0.10431182 0.065792777 -0.076495588
0.11041604 0.069818556 -0.078041434
0.4261854 0.065728687 -0.074814834
0.43072268 0.060182925 -0.071952775
0.10787462 0.07273972 -0.073089205
0.11511219 0.07638108 -0.075006321
0.12250774 0.079045124 -0.078160465
0.41862515 0.077515177 -0.075747296
0.42220935 0.073018894 -0.073645808
0.11738452 0.081059843 -0.071647786
0.12529571 0.083792955 -0.075055063
0.13329428 0.087770291 -0.077156574
0.40935454 0.089268416 -0.079533763
0.41442567 0.08444868 -0.074943982
0.13700339 0.093061455 -0.072836429
0.14577864 0.096748777 -0.075566024
0.15173073 0.099409662 -0.077894606
0.40647167 0.095384918 -0.075474195
0.14764701 0.10050233 -0.070809796
0.15653209 0.10358346 -0.07481648
0.16491339 0.10719709 -0.075437263
0.17160891 0.10914829 -0.077453174
0.39637777 0.1070581 -0.075777352
0.40191293 0.10244465 -0.073688693
0.17575376 0.11157957 -0.073637344
0.18509132 0.1140047 -0.075038686
0.19555418 0.11659092 -0.076130413
0.20332426 0.11918441 -0.074416421
0.37593889 0.11895764 -0.076160222
0.386859 0.11419577 -0.074266538
0.39286554 0.11151956 -0.071980022
0.20799266 0.12069115 -0.073744141
0.21575187 0.12295978 -0.074266389
0.22424476 0.1248304 -0.074389555
0.23528166 0.12762561 -0.075226501
0.24401063 0.12921029 -0.076546662
0.32753733 0.1295799 -0.079749927
0.33591977 0.12905283 -0.076341443
0.34506166 0.12761331 -0.074570529
0.35555446 0.1252318 -0.075655349
0.36460149 0.12362103 -0.074586183
0.3726756 0.12134328 -0.073328517
0.2482969 0.13037783 -0.072358966
0.2546947 0.13086545 -0.075984403
0.26513076 0.13274407 -0.07506185
0.27623332 0.13365047 -0.072478905
0.28489923 0.13375168 -0.074155957
0.29449978 0.13357852 -0.073896714
0.30362299 0.13272443 -0.075100869
0.31461361 0.13159506 -0.076282255
0.32496077 0.13068488 -0.075260632
0.33190289 0.13090362 -0.070579007
0.091243356 0.0083657093 -0.069319211
0.44828171 0.0067766043 -0.067161933
0.078770332 0.01711672 -0.062250931
0.086076677 0.0141169 -0.066637449
0.091166168 0.014630938 -0.069985308
0.44810286 0.015061895 -0.064052723
0.45016247 0.010836691 -0.061547436
0.078651331 0.025654221 -0.062907651
0.083727531 0.024545528 -0.067712918
0.44569477 0.024872856 -0.066171773
0.078500293 0.036142308 -0.062422391
0.082356893 0.035340641 -0.06703189
0.44416091 0.0352812 -0.064858042
0.079156257 0.043898541 -0.062176559
0.083988748 0.04372194 -0.067252502
0.43915883 0.047902048 -0.067054912
0.4418239 0.044415746 -0.063682161
0.079577088 0.050253436 -0.06107571
0.085263632 0.055229031 -0.064679004
0.090716988 0.058834437 -0.06788256
0.43589237 0.055774197 -0.065615147
0.44001916 0.050481744 -0.062985033
0.087651998 0.063195281 -0.061992183
0.094547935 0.066920072 -0.065530419
0.42897147 0.067632586 -0.064758055
0.43263733 0.062183581 -0.064256556
0.097139217 0.072937906 -0.06220131
0.10483606 0.076418571 -0.066000424
0.11173499 0.078802384 -0.069449455
0.42405897 0.074884824 -0.065202937
0.10730511 0.080960073 -0.062691689
0.11532525 0.08482983 -0.064763382
0.12388952 0.088771887 -0.067051142
0.41695103 0.085074 -0.065206185
0.42130139 0.080027051 -0.062795177
0.1263787 0.092813626 -0.063065723
0.13473123 0.096643366 -0.064687558
0.14219287 0.098981023 -0.068071336
0.40834245 0.097664312 -0.0654319
0.41177794 0.092966951 -0.064997666
0.13912484 0.10071974 -0.061325513
0.14613678 0.10307217 -0.063663475
0.15394811 0.10614288 -0.065442465
0.16240881 0.10919113 -0.067483254
0.39846244 0.10884644 -0.068153352
0.4032566 0.10491841 -0.06519793
0.16609558 0.11112255 -0.064222582
0.17538777 0.11373708 -0.065504506
0.18501155 0.11678604 -0.064435169
0.19416822 0.11877478 -0.064983271
0.3864595 0.11874232 -0.065265469
0.39453226 0.11340123 -0.064588211
0.40055424 0.11005059 -0.061487954
0.19948862 0.12024308 -0.062761851
0.20571747 0.12190153 -0.064858109
0.21419463 0.12440884 -0.064273946
0.22755404 0.12742774 -0.064500876
0.23516011 0.12900819 -0.065810524
0.24283712 0.12976742 -0.068961672
0.34571341 0.12904257 -0.068180449
0.35360312 0.12871778 -0.064645745
0.36551723 0.12559368 -0.066358343
0.37442458 0.12344915 -0.064572014
0.38180572 0.12134309 -0.063238703
0.2393373 0.13059047 -0.060047626
0.2454074 0.13097034 -0.063941076
0.2555978 0.13245258 -0.065167055
0.26498643 0.13388781 -0.064768799
0.27433583 0.13416512 -0.066747166
0.28462082 0.13453797 -0.06517449
0.2946437 0.13429941 -0.066646732
0.30579594 0.13429204 -0.066457734
0.31564236 0.13385278 -0.065194838
0.32426175 0.13306056 -0.064949565
0.33458737 0.13168712 -0.064809501
0.34504676 0.13101758 -0.061627273
0.069370404 0.015631363 -0.052084025
0.073199816 0.014385399 -0.055996332
0.4527517 0.015126514 -0.05477171
0.069015019 0.026087975 -0.052495833
0.073971197 0.025420096 -0.057484314
0.44939232 0.026326224 -0.058033973
0.45229518 0.022820821 -0.053060282
0.068688467 0.035217825 -0.052665912
0.074091263 0.034943003 -0.057783224
0.44841003 0.035814397 -0.054889277
0.45044297 0.034332387 -0.051018417
0.068532407 0.04289626 -0.051774915
0.073094703 0.04470408 -0.055870019
0.44490078 0.045432501 -0.055096306
0.069093779 0.051582843 -0.050060637
0.075465009 0.055041671 -0.054671504
0.081760749 0.059130076 -0.058699101
0.43886369 0.057195008 -0.056128096
0.44211587 0.053179763 -0.05332496
0.076975308 0.062681265 -0.05111235
0.084005669 0.066276528 -0.055581801
0.42918974 0.069825664 -0.059969194
0.43387362 0.065284796 -0.055512045
0.087887652 0.07336729 -0.053063296
0.09467572 0.076484226 -0.056279372
0.10107666 0.079170734 -0.0594806
0.42697215 0.075812086 -0.054566
0.095616005 0.08207982 -0.050722897
0.10494184 0.085091889 -0.054991711
0.11336843 0.088617675 -0.057941891
0.4187085 0.087354846 -0.055350974
0.42266545 0.082127348 -0.05461017
0.116097 0.09281484 -0.052918315
0.1253766 0.09649241 -0.055305764
0.13333675 0.099237368 -0.058397301
0.40905246 0.099214859 -0.059465319
0.4133749 0.094723418 -0.05481698
0.13655291 0.10303035 -0.05322776
0.14484908 0.10560031 -0.055324163
0.15318204 0.10902894 -0.05664432
0.40586984 0.10554962 -0.055722039
0.41027388 0.10005953 -0.051332973
0.15586694 0.11071471 -0.053729337
0.16578852 0.11359852 -0.055271208
0.17441736 0.11564907 -0.056232292
0.18624829 0.11893031 -0.05510217
0.19107606 0.11957552 -0.057198491
0.39540562 0.11630668 -0.055376802
0.4015336 0.11216637 -0.05322836
0.19479254 0.12110259 -0.053332053
0.20481522 0.12378888 -0.054288737
0.21420221 0.12569073 -0.055511851
0.22652029 0.12846833 -0.056657255
0.23241198 0.12964453 -0.055758551
0.35758853 0.12921883 -0.058317252
0.36411998 0.1287241 -0.0546299
0.37554428 0.12589988 -0.056302708
0.38506511 0.12335689 -0.053753972
0.2381905 0.13088986 -0.054424703
0.24610607 0.13213821 -0.053902205
0.25550371 0.13347496 -0.053570308
0.26463386 0.13458578 -0.054315243
0.27498388 0.13504185 -0.055317197
0.28338921 0.13516225 -0.055335958
0.29445344 0.13570963 -0.055120189
0.30569196 0.13609132 -0.055215109
0.31580943 0.13540697 -0.054133926
0.32601568 0.13418227 -0.05730084
0.33524284 0.13346724 -0.054482996
0.34578425 0.13212268 -0.053506307
0.35548291 0.13054611 -0.053786576
0.45879492 0.0061163432 -0.046491034
0.058991935 0.015341943 -0.041994389
0.064471371 0.014434468 -0.046946734
0.45756894 0.01457744 -0.04438905
0.46012861 0.0115324 -0.041007411
0.057532087 0.024371583 -0.042263962
0.063827977 0.025450371 -0.047493372
0.45519343 0.025254574 -0.045400273
0.057339516 0.034644414 -0.042587835
0.063125066 0.035079211 -0.047648586
0.44942927 0.03872095 -0.049991287
0.45348155 0.033905052 -0.044066411
0.057926863 0.045232829 -0.042825494
0.064179868 0.04488888 -0.047450341
0.44846821 0.045488451 -0.045703091
0.45110291 0.04206907 -0.042173587
0.058310013 0.051144488 -0.041862179
0.065126047 0.055163667 -0.044736173
0.071122468 0.05813216 -0.048675794
0.44343302 0.055020839 -0.045981031
0.067900971 0.062872246 -0.041890509
0.074916355 0.066331342 -0.046025116
0.080791771 0.069399357 -0.04939241
0.43704888 0.065762155 -0.045965593
0.44091168 0.060399491 -0.044846307
0.077920698 0.07316009 -0.043405086
0.084683113 0.076581404 -0.046188734
0.090806745 0.079000004 -0.049806748
0.4287543 0.078650974 -0.043991234
0.43155915 0.073908865 -0.04486838
0.087975383 0.082268879 -0.042684369
0.095395103 0.085741483 -0.04467342
0.10273626 0.088032506 -0.048341829
0.41952083 0.089296699 -0.048080295
0.42417476 0.084458157 -0.045659162
0.10601052 0.092243783 -0.04422164
0.11530476 0.096179597 -0.044637471
0.12253804 0.098723143 -0.047682978
0.41600126 0.095424384 -0.045038234
0.12580428 0.10196204 -0.042440154
0.13388236 0.10462987 -0.044765871
0.14503922 0.10892938 -0.045673858
0.4078646 0.10592053 -0.046537992
0.41042241 0.10341457 -0.043187901
0.14860667 0.11074364 -0.043495163
0.15554827 0.11310408 -0.043594494
0.16422762 0.11519626 -0.045841228
0.17742318 0.11828434 -0.0451755
0.18347977 0.11915189 -0.047550701
0.3982608 0.11820352 -0.045581233
0.40339693 0.11278936 -0.043432161
0.18700628 0.12069801 -0.044247627
0.19643798 0.12312816 -0.044171989
0.20407592 0.12513493 -0.04441753
0.21532665 0.12777331 -0.044609342
0.22414759 0.12914667 -0.047103938
0.36860362 0.12905504 -0.048582017
0.37387574 0.12869307 -0.044508889
0.38562918 0.12528755 -0.045604527
0.39282081 0.12291752 -0.044475663
0.22515702 0.13012771 -0.042727392
0.23378713 0.13094318 -0.045412883
0.24428426 0.1328721 -0.043658309
0.25409204 0.13403399 -0.045699406
0.26453182 0.13491982 -0.043898929
0.27399102 0.13528709 -0.044630889
0.28447297 0.13601343 -0.046099402
0.29487395 0.13670185 -0.043548912
0.30388615 0.13697912 -0.044574764
0.31554016 0.13657068 -0.045791239
0.32631636 0.13567802 -0.04557145
0.33646825 0.13464786 -0.046101909
0.34482706 0.13380232 -0.043852154
0.3544983 0.13226278 -0.045032822
0.36579642 0.13064834 -0.042952336
0.3707712 0.13005179 -0.040969826
0.047161881 0.016343227 -0.032935575
0.053303577 0.015862208 -0.037686683
0.45946267 0.018766917 -0.039167888
0.46384859 0.014826638 -0.033342015
0.039684616 0.028920416 -0.030453771
0.045270775 0.026380789 -0.033286624
0.052333727 0.024387831 -0.038222056
0.45912182 0.026110919 -0.036543548
0.46149498 0.022823136 -0.03341049
0.039111137 0.036581915 -0.03107409
0.045376658 0.035134073 -0.034834396
0.052518528 0.034579325 -0.039065782
0.45719025 0.034647688 -0.034650382
0.038657915 0.045505244 -0.030931661
0.044696152 0.044925027 -0.034279797
0.050753757 0.044748738 -0.038222726
0.44971305 0.048764113 -0.039038949
0.45296511 0.044584129 -0.035079442
0.038803421 0.050302505 -0.030400366
0.045969769 0.05352385 -0.032404277
0.054107558 0.05592446 -0.035917763
0.061069436 0.057847925 -0.039234102
0.44694558 0.05581592 -0.036051434
0.45144349 0.051779356 -0.030224001
0.056687236 0.062889457 -0.032244023
0.064232573 0.065443143 -0.036114827
0.070805155 0.068464011 -0.039676424
0.43903705 0.068669394 -0.035608426
0.44262764 0.063348927 -0.034896795
0.067273639 0.072673798 -0.032525297
0.074191667 0.076187856 -0.035919923
0.080465883 0.079455405 -0.038896643
0.42941642 0.079984061 -0.039199002
0.4344444 0.074851193 -0.036215805
0.44006997 0.070061907 -0.030519096
0.078624919 0.081804231 -0.033797078
0.086112037 0.086200528 -0.0345512
0.094727837 0.089230515 -0.038151551
0.42692605 0.085879289 -0.035921291
0.43087372 0.082289904 -0.033245794
0.089000002 0.090170033 -0.030074926
0.096908957 0.092385218 -0.033234924
0.10515921 0.094840303 -0.036857314
0.11291101 0.098709472 -0.035242353
0.41795424 0.097689703 -0.036380187
0.42232981 0.093365252 -0.033947095
0.11723039 0.10114076 -0.034054141
0.12521738 0.10381243 -0.03604921
0.13596568 0.10831791 -0.035253502
0.4091126 0.1088177 -0.037735257
0.41378447 0.10420136 -0.034127455
0.1455638 0.1116716 -0.034781024
0.15477099 0.11454052 -0.034394067
0.16641153 0.11707471 -0.035180848
0.17546687 0.11928759 -0.035834748
0.40482929 0.11490847 -0.035534453
0.1851445 0.12186576 -0.034383096
0.19507505 0.12415919 -0.034568261
0.20444632 0.1266835 -0.034036495
0.21575759 0.12884898 -0.035413343
0.2215323 0.12972124 -0.035577595
0.37834591 0.12918462 -0.038114507
0.38343221 0.12864688 -0.034812745
0.39433536 0.12430159 -0.035647504
0.40161055 0.12002202 -0.034637533
0.22514884 0.13043101 -0.035137009
0.23543468 0.13206267 -0.034996565
0.24666807 0.13373022 -0.034552872
0.25568801 0.13446635 -0.035776388
0.26521081 0.13517573 -0.037352029
0.27445978 0.13600962 -0.033751223
0.28598353 0.13687947 -0.03484099
0.29425439 0.13699998 -0.034919959
0.30458075 0.13713244 -0.034122992
0.31492743 0.13699998 -0.036217321
0.32463983 0.13695994 -0.035897791
0.33541122 0.13565116 -0.036185309
0.34664524 0.13439754 -0.034936763
0.35491729 0.13343361 -0.034719083
0.36499524 0.13144787 -0.035153389
0.37246954 0.13078994 -0.03421621
0.04180922 0.0073372736 -0.028970143
0.46914715 0.0080724852 -0.028447494
0.027655713 0.01684076 -0.020333406
0.035072871 0.015374224 -0.024772406
0.041267969 0.013000973 -0.028522352
0.46874124 0.015843822 -0.02526316
0.47133636 0.015101503 -0.02169059
0.027518073 0.025249198 -0.022597348
0.035960961 0.023574479 -0.02711143
0.46493939 0.024859957 -0.026321217
0.017676562 0.038038015 -0.021055186
0.024835292 0.034664914 -0.023567213
0.033788502 0.033769175 -0.02803487
0.45923406 0.037707321 -0.027858943
0.46208435 0.034581993 -0.024863925
0.016071165 0.04616322 -0.022156291
0.024027044 0.04379452 -0.024932701
0.032776117 0.0444321 -0.028448876
0.45730343 0.045461353 -0.025415707
0.46108121 0.040632382 -0.021843635
0.017846227 0.053815462 -0.022119151
0.025238022 0.054459598 -0.023989426
0.034611512 0.055779867 -0.02603792
0.043234468 0.05746818 -0.028323583
0.44881597 0.058746871 -0.028611081
0.45299104 0.054687563 -0.024443898
0.036043786 0.061010215 -0.021572329
0.044708401 0.062895611 -0.023956781
0.054276757 0.067175187 -0.025853628
0.44645384 0.065219462 -0.025041869
0.45002085 0.063603781 -0.020354545
0.05718445 0.072467282 -0.022572696
0.064860746 0.077107608 -0.024796525
0.43771121 0.076868206 -0.025973452
0.44252729 0.07273189 -0.022485137
0.067586385 0.081091791 -0.021285767
0.0753484 0.084064767 -0.026132537
0.082940377 0.088953659 -0.024232015
0.42910987 0.088930219 -0.026655059
0.43338123 0.084403463 -0.024690479
0.086911969 0.09152317 -0.022136867
0.094238065 0.093810327 -0.025368508
0.10540611 0.098421521 -0.026081944
0.4253011 0.095516197 -0.025454737
0.10804876 0.10030402 -0.023275569
0.11622126 0.10337986 -0.024850054
0.12514724 0.10667704 -0.024688726
0.13291326 0.10925893 -0.025885969
0.41683304 0.10658506 -0.025991214
0.42232898 0.10339367 -0.022692025
0.13782579 0.11088129 -0.025739938
0.14688174 0.11365774 -0.025019469
0.15317503 0.11543381 -0.024512334
0.16587724 0.11837672 -0.025560787
0.17211759 0.11950004 -0.026842549
0.40744421 0.11667584 -0.026249755
0.41244408 0.11290566 -0.023412487
0.1768595 0.12094334 -0.024897026
0.18568113 0.12318273 -0.02497844
0.19387934 0.12525454 -0.025698895
0.20699662 0.12834565 -0.023888793
0.21424775 0.1293463 -0.027320514
0.38672313 0.12884843 -0.025467634
0.39570925 0.12537096 -0.025584234
0.40204021 0.12158901 -0.025828773
0.21675241 0.13055049 -0.020529713
0.22473812 0.13122289 -0.02492865
0.23433995 0.13258451 -0.025327576
0.24379085 0.13391538 -0.024216592
0.25545678 0.1352054 -0.024817869
0.26492339 0.13582681 -0.025890443
0.27516285 0.13668419 -0.024809152
0.28542987 0.13701162 -0.02463126
0.29556397 0.13743842 -0.025090672
0.30546209 0.13792114 -0.025087411
0.31542709 0.13735887 -0.025784655
0.32455695 0.13699205 -0.025825676
0.33442739 0.13623559 -0.025327817
0.34545538 0.13511324 -0.024905132
0.35419011 0.13398203 -0.026408732
0.36343148 0.13288188 -0.026596636
0.37381262 0.13162833 -0.024558883
0.38212451 0.13030834 -0.025506733
0.47848937 0.0060549676 -0.0142396
0.016310764 0.015300876 -0.012690287
0.024084358 0.01538276 -0.017629676
0.47516268 0.013726302 -0.01610788
0.0088440012 0.027455278 -0.011849206
0.01552037 0.025212742 -0.015299669
0.021560665 0.024161361 -0.018575273
0.46901208 0.026556753 -0.018850341
0.47347406 0.024006346 -0.013821196
-0.00057023397 0.039575316 -0.012686433
0.0049981037 0.036268611 -0.014204699
0.013288055 0.035095681 -0.017534511
0.46705839 0.035036247 -0.016165487
0.47118586 0.031244563 -0.012334229
-0.0024488093 0.044775255 -0.012284522
0.0060616136 0.045476727 -0.017149111
0.011850234 0.042601161 -0.019860327
0.45910293 0.04906242 -0.01883463
0.46402845 0.044684954 -0.013967397
-0.0011352311 0.053172518 -0.01208935
0.0064223777 0.055956051 -0.015281751
0.015328125 0.05759418 -0.017559612
0.023134718 0.059204657 -0.019449223
0.45763627 0.055855636 -0.015527178
0.0063056145 0.060676549 -0.010205747
0.014899169 0.061554987 -0.01292313
0.024694636 0.063685514 -0.014425859
0.035562366 0.066485159 -0.014838711
0.044704042 0.068239391 -0.017661056
0.4489066 0.067341283 -0.018090963
0.45396012 0.064466998 -0.013794186
0.045925077 0.071764328 -0.01298116
0.054572772 0.075937882 -0.014389416
0.060586225 0.079188302 -0.016993027
0.43996125 0.079258256 -0.019299854
0.44620615 0.075052924 -0.014752163
0.4500728 0.07338649 -0.011183136
0.066889346 0.083305076 -0.014598698
0.076095924 0.088179417 -0.016086265
0.43697655 0.086494073 -0.015957264
0.44223893 0.081853859 -0.013444007
0.079628378 0.090007357 -0.014848314
0.086996429 0.093639828 -0.014757267
0.096590556 0.097694919 -0.014630471
0.10264805 0.09939 -0.017855361
0.42887464 0.097949095 -0.016553562
0.43280831 0.095101804 -0.013570539
0.10567155 0.10141896 -0.014234401
0.11367532 0.1042597 -0.015026358
0.12650998 0.10876011 -0.014777993
0.42549768 0.10614847 -0.015344769
0.43027434 0.10285407 -0.012314213
0.13691203 0.11206368 -0.014462797
0.14473823 0.11409346 -0.015769778
0.15625963 0.11692604 -0.014026565
0.16463467 0.11901142 -0.015947737
0.4090656 0.11949262 -0.018716153
0.41544735 0.11606651 -0.014991808
0.42096251 0.11399999 -0.010546869
0.1688246 0.12007467 -0.012692426
0.17613308 0.12197481 -0.01432508
0.18508846 0.12414322 -0.014911999
0.19488239 0.12670282 -0.014911109
0.20541979 0.12886128 -0.015014926
0.38920575 0.12905669 -0.018395219
0.39485487 0.12738191 -0.014962566
0.40411234 0.12335513 -0.016120356
0.41143593 0.12040466 -0.011104776
0.20959108 0.13002539 -0.013464052
0.21641676 0.13086754 -0.014837159
0.22520298 0.1320162 -0.015708903
0.23709877 0.13367426 -0.0137686
0.24489921 0.13471806 -0.015741661
0.2551876 0.13559571 -0.015840435
0.26544735 0.13647775 -0.015237493
0.27497572 0.13691102 -0.016033418
0.28452107 0.13701271 -0.015312135
0.29337403 0.13764815 -0.015025328
0.30511773 0.138 -0.014741904
0.31456736 0.13790037 -0.01494363
0.32476848 0.13700935 -0.015827401
0.33400548 0.13673605 -0.014809463
0.34446037 0.13547969 -0.014307288
0.35665238 0.13427243 -0.015489015
0.36524087 0.13341402 -0.014690157
0.37446257 0.13222888 -0.014919626
0.38355637 0.13100788 -0.013744068
0.48429266 0.0062761893 -0.0054951515
0.0073881117 0.016808951 -0.0041043968
0.011897246 0.014443958 -0.0087306481
0.47906268 0.015551292 -0.008056757
0.48329839 0.014057162 -0.0028206401
-0.001592448 0.027909353 -0.0044555999
0.0034699328 0.024760988 -0.0064183059
0.47758418 0.025618732 -0.0067140339
0.48113617 0.024376942 -0.0027103275
-0.011963879 0.037540957 -0.0018916576
-0.0050639156 0.034532018 -0.006186944
0.47546479 0.034797594 -0.0052775075
0.48069865 0.031758834 -0.0011108373
-0.012412965 0.044592831 -0.0032243722
-0.0078019029 0.044416692 -0.0077427742
0.46840042 0.045594957 -0.0068460321
0.4731946 0.044918921 -0.002828741
-0.011570477 0.053117495 -0.0012752331
-0.0045950408 0.055948161 -0.0064012711
0.0006655755 0.059646681 -0.0082393708
0.46520963 0.054607622 -0.0056812405
0.4704968 0.052480534 -0.0015347055
-0.00069364556 0.060183816 -0.00069225149
0.0063359528 0.063050084 -0.003488882
0.013735771 0.065311641 -0.005660987
0.024362981 0.068559639 -0.0056823869
0.031782493 0.069325745 -0.0082715638
0.45868143 0.065276586 -0.0073046358
0.46339869 0.064136222 -0.0026178905
0.027601579 0.070872128 -0.0025809749
0.036748175 0.073183455 -0.0037340249
0.046321929 0.07605654 -0.0050964826
0.052769277 0.079020128 -0.00601005
0.4482851 0.078944579 -0.0086608157
0.45474786 0.074960038 -0.0045136558
0.4622488 0.071136191 -8.9304682e-05
0.057100784 0.082257733 -0.0028923491
0.064580224 0.085206002 -0.0052268216
0.073331878 0.088881575 -0.0072062439
0.44551423 0.085523427 -0.0056937663
0.45110121 0.081837758 -0.0027039987
0.076267011 0.09080416 -0.0034941675
0.08443404 0.094161339 -0.0052906149
0.094970264 0.09855064 -0.0049615018
0.43697131 0.096201509 -0.006702411
0.44263616 0.09309911 -0.0028310674
0.10621588 0.10285837 -0.0036217798
0.11338761 0.10517647 -0.0051204655
0.1236988 0.10876928 -0.0049171536
0.42928576 0.1085645 -0.006800516
0.43405539 0.10389816 -0.0047359364
0.12866738 0.11047611 -0.0048302766
0.13589852 0.11241924 -0.0044287578
0.14513375 0.11478698 -0.0067680324
0.15541629 0.11737034 -0.0051406445
0.16257286 0.11916135 -0.0057134656
0.41819358 0.11860659 -0.0053682006
0.42559791 0.11359518 -0.0045894287
0.16756669 0.12048081 -0.0044379206
0.17617925 0.12292514 -0.0039736503
0.18387723 0.12492921 -0.0054773875
0.19500361 0.12766619 -0.0045923395
0.20423166 0.12911774 -0.0057973335
0.38957927 0.12971036 -0.0060815723
0.39380813 0.12821881 -0.0047414247
0.40579388 0.12441497 -0.0046902704
0.41198501 0.12206177 -0.0039131027
0.20947175 0.13009433 -0.0035615845
0.21443763 0.13108751 -0.0061906101
0.22475526 0.1323566 -0.0049966816
0.23415224 0.13397551 -0.0045118434
0.24321148 0.13503066 -0.0042501814
0.25680989 0.1362242 -0.0066633383
0.26446822 0.13696934 -0.005040687
0.27397832 0.13699998 -0.005145058
0.28486201 0.1373301 -0.0042661401
0.29468197 0.13797666 -0.0055657285
0.30377117 0.138 -0.0043019066
0.31555137 0.13788137 -0.0040082945
0.32566148 0.1370751 -0.0059698648
0.33607817 0.13652635 -0.004651139
0.34522665 0.13558814 -0.0045836554
0.35511765 0.1346478 -0.0051781447
0.36419868 0.13397503 -0.0042107212
0.37457287 0.13273434 -0.0046152468
0.38433799 0.13093241 -0.0039907494
0.020560831 0.0077518532 0.0092612207
0.48898682 0.008179063 0.0014909903
0.0093606217 0.017890718 0.0014832239
0.015578454 0.015163435 0.0043098191
0.02077331 0.012663713 0.0081464062
0.48792154 0.016041642 0.0036609706
0.4919101 0.012717432 0.0070241741
-0.011268088 0.028607666 0.007126709
-0.0034324094 0.028098095 0.0038567036
0.0046653352 0.025705561 0.0052797934
0.013261688 0.023601258 0.0084045967
0.48589069 0.025999986 0.0038028783
-0.015251203 0.035057127 0.0047175083
-0.006320498 0.031148374 0.0065790438
0.48532781 0.034632776 0.0052524903
-0.01652164 0.047082946 0.0037936773
0.47799152 0.045158945 0.0013796882
0.48387277 0.044451069 0.0063126092
-0.011518611 0.053850472 0.0047286926
-0.0044758166 0.057906602 0.0053110491
0.46865788 0.059102252 0.00060329319
0.47559249 0.056013752 0.0037375046
0.48249707 0.053086292 0.007557407
0.0056122094 0.063853599 0.005121375
0.015593419 0.068900809 0.0045679002
0.46791336 0.064746693 0.00209009
0.47498038 0.064916767 0.0069085052
0.48011509 0.060649361 0.0081150942
0.018293731 0.070650667 0.0073297862
0.025464008 0.072783232 0.0050131399
0.035317935 0.075416282 0.0038601323
0.044684652 0.078848124 0.0032644127
0.45899999 0.078824267 0.0020000001
0.46459237 0.074716941 0.0040364889
0.47083902 0.070897259 0.0070300978
0.04804264 0.081757471 0.0077852774
0.055135496 0.083731279 0.0052003413
0.065864794 0.088277534 0.0049306429
0.070256203 0.08948417 0.0019489495
0.44923475 0.089064457 0.0012669695
0.45550659 0.08472088 0.0031869831
0.46340868 0.081990957 0.0081928093
0.069961511 0.09038461 0.0074580242
0.077177159 0.092871159 0.0055456227
0.08458332 0.095627017 0.0040983343
0.093054377 0.098797381 0.0046549034
0.4464519 0.096585505 0.0034485867
0.45288125 0.093187042 0.0073520443
0.097249977 0.10029998 0.0074899951
0.10525777 0.1032715 0.0047614733
0.1146476 0.10638943 0.0048573762
0.12340942 0.10895133 0.0042679659
0.43656129 0.10754817 0.0035034716
0.44286743 0.10319231 0.0058154091
0.12752588 0.11041036 0.00796746
0.13574705 0.11282767 0.0059737992
0.14280137 0.11459596 0.0032951259
0.15610088 0.11832212 0.0044828919
0.16011199 0.1192224 0.0054552262
0.41924012 0.11991994 0.0065743742
0.42507869 0.11661702 0.0042810612
0.43228942 0.11238652 0.0066507584
0.16544245 0.12075118 0.0053981044
0.17622712 0.12363837 0.0043695136
0.18480198 0.12615347 0.0067303227
0.19690055 0.12859493 0.0043960507
0.20258805 0.12960508 0.0029084347
0.38924956 0.12991565 0.0080367671
0.39457381 0.12811063 0.0052063186
0.40646327 0.12493446 0.0043668491
0.41449502 0.12228171 0.005671375
0.20647731 0.13014358 0.0068689198
0.2152559 0.131294 0.0062046004
0.22608693 0.13339466 0.005897563
0.23430084 0.13458857 0.0056770789
0.24516882 0.13573861 0.0050150771
0.25479528 0.13634545 0.0043404433
0.26601249 0.13699998 0.0056862636
0.27503255 0.13699998 0.0044017374
0.28413498 0.13781641 0.004989902
0.2957392 0.138 0.0058458615
0.30547699 0.138 0.0064070337
0.31391388 0.13783996 0.0051499954
0.32603541 0.13702749 0.0050946972
0.33431116 0.13621877 0.003424031
0.34413856 0.13571794 0.004711824
0.35598129 0.13452969 0.0044087898
0.3643347 0.13377289 0.0055712359
0.37349167 0.13273276 0.0057855234
0.38416585 0.13096681 0.0051721847
0.49827114 0.0089665717 0.012040429
0.50548565 0.0060098143 0.013952229
0.024228515 0.016184999 0.01478175
0.49668285 0.017081825 0.013296512
0.50204039 0.014643307 0.017675664
0.0085540898 0.028982632 0.010746474
0.016616333 0.026270481 0.014616305
0.02258433 0.02241989 0.016975768
0.49609342 0.025362844 0.014150979
0.50006425 0.02276402 0.017851427
-0.014219838 0.035437893 0.012720217
-0.0052703088 0.036071684 0.014599254
0.0051900111 0.033898804 0.015238382
0.013463578 0.032218318 0.018466042
0.4897148 0.035813317 0.010077481
0.49537033 0.034225609 0.014830528
0.5004319 0.036200278 0.019012798
-0.014048659 0.045461569 0.012442279
-0.005957712 0.046006586 0.017475331
0.48913151 0.046017945 0.011315397
0.4951098 0.044087067 0.015735477
-0.011709263 0.050825961 0.010258286
-0.0042653205 0.054380313 0.014368286
0.0019124482 0.058497611 0.017181091
0.48778248 0.055335835 0.012292958
0.49501607 0.055180825 0.017069625
0.0060565732 0.063054614 0.014166732
0.014366707 0.067612797 0.016124764
0.47940156 0.068779379 0.011354169
0.48590448 0.064967774 0.014154977
0.49398389 0.061161239 0.018108269
0.01892638 0.070199557 0.015918721
0.025104394 0.07334622 0.014140372
0.036596131 0.078056447 0.014278581
0.041691016 0.079878181 0.014442397
0.47569582 0.075568363 0.013082612
0.48338619 0.073359773 0.01702393
0.04682605 0.082097791 0.015561816
0.054684311 0.085050471 0.01421019
0.064101391 0.088857107 0.015463737
0.45961678 0.088842623 0.010498708
0.46612763 0.08687108 0.014134557
0.47530165 0.083149619 0.017609587
0.067662925 0.090464734 0.017002154
0.075828999 0.093276933 0.014999249
0.08415775 0.09615498 0.015154846
0.092430666 0.099330701 0.014533104
0.45512629 0.096430041 0.014164227
0.46323508 0.092641279 0.01755996
0.097079054 0.10110939 0.015065087
0.10529458 0.10386035 0.015214874
0.11550611 0.10713775 0.01554881
0.12227183 0.10923639 0.014837851
0.43899512 0.10930461 0.014004734
0.44619045 0.10459217 0.01560854
0.45046523 0.10222472 0.018086866
0.12638113 0.11049593 0.016222842
0.13599315 0.11326153 0.014005947
0.14545561 0.11578177 0.014693582
0.15571816 0.11861213 0.014583179
0.4249565 0.11834689 0.015299653
0.43409798 0.11304087 0.015444946
0.15947428 0.12009485 0.018348109
0.16460373 0.12106791 0.014015562
0.17413938 0.12374672 0.015097865
0.1863482 0.12656622 0.014663675
0.19618039 0.12877202 0.015078208
0.20314464 0.12982893 0.013685137
0.38974714 0.12980348 0.012789527
0.39438635 0.12851819 0.015645338
0.40617007 0.12554832 0.015525651
0.41435698 0.12294901 0.014901124
0.42098734 0.12046074 0.015475001
0.2067759 0.13055518 0.016819775
0.21504018 0.13205932 0.015445536
0.22504094 0.13368866 0.015139255
0.23605449 0.13500451 0.015615301
0.24420302 0.13594402 0.017022191
0.2557961 0.13686584 0.015976088
0.26594502 0.13700865 0.015253206
0.27528992 0.13715447 0.015838567
0.28522512 0.13780823 0.014619999
0.29489663 0.138 0.014940849
0.30518931 0.138 0.016712191
0.31452909 0.13786888 0.014780401
0.32299367 0.13717879 0.014271283
0.33403888 0.13641807 0.014491547
0.34489858 0.13556163 0.014862156
0.35557702 0.1344754 0.01573875
0.36449438 0.13366625 0.015051659
0.37587622 0.13197453 0.013524042
0.38452187 0.13077939 0.015664579
0.50875455 0.0091603342 0.025386279
0.51508737 0.0083939573 0.025314637
0.028550779 0.018245611 0.021950822
0.033654105 0.01490755 0.026136523
0.50750387 0.014300831 0.024119705
0.51305628 0.013697522 0.027621675
0.01926459 0.029590953 0.020855548
0.025167661 0.02539121 0.023920266
0.031335235 0.023926029 0.029845074
0.50567305 0.02565123 0.022079678
0.51366001 0.025316004 0.027282219
0.0058581424 0.038889624 0.022204904
0.015312894 0.035788286 0.025166126
0.022653366 0.031649284 0.028618325
0.50513083 0.035133176 0.021736942
0.51385897 0.03536832 0.02715281
-0.00021556823 0.047850698 0.02078443
0.005205234 0.044865552 0.025108797
0.011454418 0.041401114 0.028774187
0.50585014 0.045883644 0.022421204
0.51386529 0.043441266 0.027089879
0.006346032 0.055360347 0.024374766
0.011985845 0.058626119 0.028545467
0.49919772 0.056846935 0.020668235
0.50561768 0.056307476 0.024715774
0.5123753 0.053864408 0.028719824
0.0088634817 0.060674995 0.023427183
0.015544148 0.065497659 0.024551535
0.02360481 0.069407985 0.028206378
0.49634922 0.066571072 0.022547267
0.50309122 0.065942153 0.027213892
0.027268102 0.073088452 0.023756992
0.035362739 0.076846473 0.02467446
0.041530501 0.079368189 0.02496648
0.48692453 0.077975228 0.022957958
0.49441284 0.074701108 0.026495751
0.50034893 0.071696512 0.02870452
0.047330212 0.081668869 0.025356242
0.053774394 0.084398665 0.024979798
0.065570392 0.088814497 0.025477966
0.47511533 0.087961078 0.023589168
0.48376897 0.083926231 0.026176682
0.069195807 0.090039164 0.023390871
0.076652594 0.092993587 0.02502946
0.085564837 0.095908247 0.02589307
0.0924647 0.098724231 0.02611199
0.45845166 0.098982498 0.025368901
0.46590394 0.094857581 0.02590861
0.47315404 0.091980636 0.028229006
0.097809725 0.10129257 0.022177596
0.1056454 0.10414825 0.025377035
0.11746489 0.10769558 0.024175115
0.12208822 0.10932551 0.025624963
0.44505528 0.10726437 0.024889933
0.45307079 0.10246622 0.026235679
0.12762997 0.11075348 0.024031311
0.13609719 0.11339486 0.024549833
0.14570695 0.11619108 0.025324309
0.15463519 0.11891277 0.024915373
0.42487752 0.11864328 0.023938127
0.43564644 0.11325984 0.024534704
0.44079503 0.11028199 0.028733347
0.16536483 0.1217409 0.024977043
0.1743598 0.12442102 0.024613421
0.18526787 0.12718746 0.024575692
0.19620107 0.12902488 0.025758361
0.20073116 0.12934622 0.02451127
0.38779309 0.12931702 0.025475448
0.39459291 0.12797309 0.025413891
0.40478832 0.12583295 0.02462489
0.41371086 0.12303913 0.02628962
0.2062259 0.13044517 0.026831515
0.21455877 0.13211174 0.024402469
0.22516853 0.13402541 0.024632907
0.23474465 0.13516209 0.02536257
0.24572672 0.13645147 0.024419375
0.25544339 0.13698944 0.024777258
0.26492178 0.13730861 0.026890876
0.27493811 0.13798362 0.025335087
0.28520882 0.13799673 0.025189422
0.29439437 0.138 0.026615802
0.30359155 0.138 0.025237948
0.31429344 0.1377992 0.025298117
0.324123 0.13701631 0.02426553
0.33388492 0.13619667 0.02408923
0.34622949 0.13509171 0.023794228
0.35685003 0.13399571 0.025443656
0.36572236 0.13311219 0.024351999
0.37625813 0.13154839 0.023773685
0.3818703 0.13042593 0.024387747
0.043115806 0.0077265203 0.036960397
0.51693314 0.0082867425 0.033857867
0.52450097 0.0086107384 0.035401039
0.53587914 0.0080970917 0.032326534
0.038298916 0.015699275 0.031935293
0.043253664 0.014245805 0.036942553
0.51712781 0.016204974 0.032089572
0.52489793 0.01370157 0.033112459
0.53628552 0.015180468 0.036414109
0.54160082 0.012626738 0.037996113
0.028162334 0.028257191 0.031257622
0.034787498 0.024821162 0.035881992
0.040967196 0.020940643 0.038907841
0.51903611 0.023450777 0.031171313
0.52466047 0.02576589 0.03325291
0.53340971 0.024705222 0.037394334
0.018027833 0.03909228 0.032497108
0.025108468 0.034755297 0.035771657
0.519822 0.034511961 0.03041151
0.52359599 0.033010777 0.032593645
0.53350151 0.034163401 0.037210573
0.015766639 0.045060322 0.035195444
0.51903456 0.047183227 0.030792257
0.5250873 0.045268051 0.034155827
0.53132194 0.043499988 0.037239265
0.016379202 0.054064583 0.033970013
0.021317437 0.055505566 0.037525244
0.5159995 0.056398265 0.032300998
0.52420437 0.054390118 0.037403371
0.01836779 0.06331595 0.031603161
0.025084522 0.065163597 0.035111796
0.031610988 0.06853345 0.038077988
0.50787753 0.066942886 0.031711925
0.51507169 0.065747246 0.036751203
0.52134049 0.061957236 0.039152026
0.029319793 0.071918018 0.030184636
0.035603788 0.073306657 0.034601975
0.044484597 0.077721968 0.034114502
0.050620165 0.079228498 0.037761595
0.49733478 0.078699976 0.033874154
0.50497419 0.074697137 0.036512118
0.51151645 0.070501767 0.037707534
0.048923761 0.080160141 0.034002498
0.055999361 0.082877554 0.033160307
0.06516584 0.085637458 0.035184566
0.074218392 0.088980488 0.036346853
0.47878247 0.089527652 0.030750776
0.48520651 0.087194793 0.033990502
0.49418679 0.082536705 0.036512848
0.078032963 0.091108188 0.034258526
0.085242532 0.093594275 0.035172302
0.095359698 0.098197564 0.035348073
0.46542835 0.09816435 0.035104647
0.47484568 0.093634345 0.035756227
0.48127329 0.090970576 0.038792878
0.098751441 0.10013659 0.030819919
0.10552012 0.10327209 0.03418757
0.11554587 0.10719268 0.034292016
0.1227442 0.10913137 0.034514386
0.44567791 0.10851167 0.035738625
0.45451137 0.10384583 0.03558645
0.46229011 0.10045725 0.036722854
0.12835884 0.11083957 0.035149109
0.13577542 0.11332837 0.034850247
0.14453819 0.1158618 0.0346784
0.15498847 0.11910713 0.034641072
0.4248201 0.11879859 0.034905214
0.43580055 0.1132945 0.034664355
0.44065744 0.11097971 0.037717625
0.15944052 0.1201762 0.034694791
0.16549712 0.12216048 0.035046026
0.17493911 0.12501475 0.034994651
0.18439248 0.1270785 0.035241414
0.19451952 0.12902626 0.035598978
0.38751352 0.12916024 0.035985529
0.39502373 0.12765953 0.034518246
0.40681803 0.12487686 0.035472989
0.41463602 0.12254225 0.036206502
0.4209882 0.12020472 0.033312302
0.2055971 0.13094082 0.035074439
0.2153538 0.132342 0.034917887
0.22496997 0.13412735 0.034513596
0.23467067 0.13529733 0.03406661
0.24429879 0.13626486 0.034043912
0.25460449 0.13699998 0.035254572
0.26663283 0.13754016 0.035075989
0.27624449 0.138 0.036552932
0.28520763 0.138 0.034142967
0.29529288 0.138 0.036975533
0.30448768 0.138 0.036306385
0.31346321 0.13778701 0.035502858
0.32528761 0.13662226 0.034321453
0.33576033 0.13571265 0.03522177
0.34572646 0.13471979 0.034903459
0.35428676 0.133817 0.035240654
0.36403048 0.13276483 0.034663077
0.37489924 0.1315248 0.033962205
0.38131532 0.13053694 0.032160752
0.052812543 0.0086471522 0.047423724
0.53388512 0.008783984 0.041999999
0.55571282 0.0075673596 0.042393625
0.56457263 0.0071388879 0.044754744
0.047118369 0.015837302 0.043075871
0.052395251 0.014040081 0.048442625
0.54558539 0.015924862 0.04155235
0.55559397 0.014771801 0.045831311
0.56349951 0.013735954 0.048522692
0.57188845 0.010056818 0.049000412
0.037985031 0.028004866 0.043349206
0.044797592 0.023459097 0.046425406
0.5442332 0.026045246 0.042198408
0.554299 0.024158465 0.047388267
0.026519509 0.038596354 0.043361429
0.033145461 0.034217939 0.045195695
0.5390507 0.036093555 0.040509082
0.54522455 0.035673175 0.044095781
0.55297434 0.03408549 0.048543505
0.019605391 0.044898402 0.04040879
0.025320904 0.045669802 0.045866363
0.5358879 0.045775406 0.041565809
0.54402709 0.044391174 0.046810549
0.027348163 0.054484162 0.043908238
0.033012599 0.057165489 0.047061466
0.52775782 0.05743745 0.041735236
0.53523171 0.054537743 0.045974724
0.54123545 0.052236497 0.048871841
0.027823169 0.060982015 0.040218137
0.036125183 0.06571734 0.043884572
0.043732118 0.068228438 0.047946896
0.51808929 0.068309657 0.0426566
0.52578604 0.064942248 0.047072183
0.53084606 0.06002079 0.04615017
0.046456311 0.073784262 0.043770194
0.054527052 0.076610789 0.045611568
0.063459679 0.078803279 0.048457589
0.50518686 0.077768631 0.044986185
0.51408899 0.072712466 0.046039712
0.057741981 0.080400988 0.041751303
0.066108823 0.082743391 0.043132104
0.074757673 0.08565224 0.045271035
0.082441203 0.088924222 0.045715235
0.48637024 0.08839871 0.044570826
0.49469176 0.083457351 0.045551986
0.50147116 0.080011547 0.047780104
0.086603224 0.09113998 0.045271173
0.094265603 0.095316872 0.044757798
0.10078131 0.098831497 0.046700727
0.46525967 0.098683998 0.046761949
0.47474772 0.09440767 0.045403097
0.48236883 0.090727717 0.045289449
0.10681883 0.10278455 0.045097124
0.11693076 0.10718029 0.045350425
0.12209789 0.10923934 0.045296695
0.44521275 0.10844706 0.044824608
0.45562345 0.1035195 0.045505572
0.46061453 0.10184592 0.04292684
0.12707169 0.11062522 0.044425331
0.1368237 0.11358326 0.045137499
0.14574482 0.11619837 0.045500323
0.15477648 0.11898737 0.044356924
0.41930297 0.1193161 0.047297575
0.42552981 0.11706307 0.045520101
0.43474847 0.11305559 0.044646893
0.44071552 0.1103138 0.042856954
0.16512913 0.12207383 0.044359673
0.17305379 0.12458832 0.045675501
0.18318513 0.12683703 0.044422604
0.19476099 0.12907811 0.044984285
0.37823009 0.12908734 0.049585234
0.38454837 0.12882739 0.045843214
0.3946535 0.12692307 0.044570215
0.40508595 0.12431827 0.044994887
0.4141354 0.1213544 0.045728814
0.19940153 0.1300803 0.045802124
0.20560652 0.13123083 0.044775438
0.21482979 0.13224453 0.045345675
0.22421589 0.13392718 0.044203367
0.23581631 0.13534857 0.044734359
0.24428117 0.13601016 0.044268951
0.25505698 0.13684317 0.045293506
0.26431441 0.13759011 0.045505106
0.27404013 0.138 0.044547874
0.28403598 0.13802376 0.044637389
0.29484701 0.138 0.045812316
0.30543327 0.13776025 0.044239271
0.3154833 0.13685526 0.044561669
0.32375956 0.13619606 0.043598484
0.33384225 0.13498956 0.045390371
0.34516749 0.13394584 0.04544875
0.35497534 0.13276106 0.046511918
0.36421683 0.1319623 0.044402093
0.37268689 0.13093336 0.043815773
0.38049358 0.13007487 0.040132076
0.57842362 0.0088139391 0.052833788
0.056535456 0.01639103 0.054774899
0.060853597 0.014412981 0.05890438
0.56791216 0.016805591 0.051447727
0.57517612 0.015228701 0.055366952
0.58144468 0.01209552 0.058986306
0.047275692 0.02720353 0.053858172
0.053163961 0.022386543 0.05628093
0.56498855 0.025652288 0.053517558
0.57158291 0.025287986 0.057524532
0.036303394 0.036842342 0.05345406
0.043411434 0.033194993 0.056513384
0.55748981 0.03489833 0.052161567
0.56338972 0.034932304 0.056266714
0.029103085 0.043754339 0.052043475
0.033687152 0.044737749 0.055982895
0.54752576 0.048426695 0.051585726
0.55492747 0.044907928 0.055212669
0.56194878 0.041579045 0.058792695
0.03654667 0.054415166 0.053256419
0.043097343 0.057404272 0.057253029
0.5393452 0.058526412 0.053429171
0.54432815 0.055484146 0.054769315
0.55262065 0.05160724 0.058227893
0.039000001 0.060680524 0.050319482
0.046624009 0.063824378 0.053927001
0.053430185 0.068075098 0.057093766
0.51984888 0.069717042 0.059907749
0.52485722 0.067788675 0.055402398
0.53424537 0.062378284 0.054544445
0.056731343 0.072284915 0.054497387
0.064968288 0.076522551 0.054785516
0.072499961 0.078964323 0.057998158
0.49997669 0.079562426 0.05674611
0.5036726 0.078104742 0.054936159
0.51420921 0.072991729 0.055559885
0.076205164 0.082368679 0.054337438
0.084839456 0.086850062 0.054830749
0.090791836 0.089513928 0.058049683
0.4772962 0.089397356 0.056520741
0.48526102 0.086807691 0.054182865
0.49425259 0.082396433 0.054213412
0.095713399 0.093669757 0.055206172
0.1025691 0.098599911 0.057122365
0.45813334 0.099196784 0.056300476
0.46547759 0.096036077 0.054780785
0.47326297 0.09270902 0.053736504
0.10817208 0.1018583 0.055896059
0.11425293 0.10552697 0.055623282
0.12207714 0.10902744 0.05465902
0.43791181 0.10894772 0.055877328
0.44540241 0.10590149 0.054329157
0.45192343 0.10272059 0.054385334
0.12751342 0.11068667 0.05611527
0.13600563 0.11324633 0.055645525
0.14540212 0.11574171 0.055288929
0.15509352 0.11884629 0.055802163
0.41602913 0.11910931 0.054157034
0.42539611 0.11460226 0.055873685
0.43222958 0.11220224 0.054054514
0.16378401 0.12166977 0.054071855
0.17395811 0.12479269 0.055528905
0.18599115 0.12739824 0.05479442
0.19427435 0.12905024 0.054610707
0.36982864 0.12983426 0.059844911
0.37628013 0.12920062 0.05474706
0.38466233 0.12777245 0.054973453
0.39628279 0.12508048 0.055829678
0.40480697 0.12317996 0.053143773
0.20467433 0.13085459 0.054340631
0.21459854 0.13213292 0.055045377
0.22486055 0.13401119 0.054449052
0.23493971 0.13492218 0.056264315
0.24504328 0.13586006 0.055637691
0.25522766 0.13692601 0.055966239
0.26507172 0.13786617 0.054453146
0.27524623 0.13820998 0.054261182
0.28440019 0.13830863 0.053832583
0.29408813 0.13806923 0.053859346
0.30488232 0.1374127 0.054736126
0.31499496 0.1365564 0.055253249
0.32450253 0.13545646 0.054679364
0.33598664 0.13424644 0.054436784
0.34458816 0.13348852 0.053978417
0.35589948 0.13226099 0.055610616
0.36472362 0.13098623 0.055323504
0.58720076 0.006437297 0.065671399
0.059845205 0.01918756 0.060549147
0.064101331 0.015136733 0.064879291
0.57940722 0.01796031 0.065039605
0.58239925 0.013922075 0.06553404
0.056092501 0.02651879 0.064091988
0.062214322 0.023051651 0.067923196
0.57801962 0.025368599 0.064191177
0.58029455 0.022219324 0.068061613
0.045548461 0.036969624 0.065010913
0.052598227 0.033406198 0.067985177
0.56877387 0.037369326 0.062284
0.57306713 0.034817729 0.065791711
0.038751766 0.044969335 0.061473377
0.043426324 0.044795234 0.065984167
0.55847651 0.048722852 0.06125477
0.56400847 0.045520287 0.065482005
0.046852369 0.054683231 0.063118078
0.053950202 0.057949632 0.068472974
0.5479632 0.058590628 0.064944081
0.55411369 0.054072473 0.063677691
0.056649845 0.06472069 0.064414427
0.062709689 0.06812159 0.068459988
0.51888728 0.069294505 0.06734591
0.52274132 0.06830439 0.065719828
0.53393131 0.064152516 0.064352915
0.54306185 0.060898442 0.064960912
0.059598763 0.070027173 0.060330227
0.06664218 0.072761752 0.064698182
0.074889414 0.077378415 0.065250002
0.48899996 0.079475209 0.069623962
0.49500942 0.078418933 0.065463327
0.50568765 0.074475773 0.064650744
0.51434064 0.071523242 0.06378594
0.085221536 0.084186815 0.064623289
