# .PCD v0.7 - Point Cloud Data file format
VERSION 0.7
FIELDS x y z
SIZE 4 4 4
TYPE F F F
COUNT 1 1 1
WIDTH 1388
HEIGHT 1
VIEWPOINT 0 0 0 1 0 0 0
POINTS 1388
DATA ascii
-0.054740142 0.12443186 0.29301128
-0.045356058 0.1246409 0.2917062
-0.036155101 0.12495042 0.29014003
-0.029376831 0.12789524 0.28999999
-0.014523469 0.12618046 0.29046217
-0.0061639696 0.12513842 0.29247752
0.0039715786 0.12592392 0.29674876
-0.074265316 0.13363421 0.29818544
-0.065783933 0.1356606 0.29637799
-0.055754099 0.1341071 0.29408804
-0.045303408 0.13527289 0.29223341
-0.035109952 0.1351911 0.29096049
-0.024251085 0.13435973 0.29029018
-0.012491483 0.13584292 0.29124472
-0.0046461034 0.13630205 0.29389018
0.0025848255 0.13414791 0.29714999
-0.071594462 0.14278996 0.29975379
-0.063745126 0.14377832 0.29768872
-0.055563692 0.14593376 0.29673988
-0.045668043 0.14481056 0.29442757
-0.034039062 0.1448261 0.29266229
-0.024291711 0.14549328 0.2924799
-0.01540665 0.14391826 0.2923528
-0.0038596825 0.14477551 0.29605973
0.00098561263 0.14286879 0.29853314
-0.062665209 0.15012717 0.29978392
-0.053525329 0.15146862 0.29875618
-0.044211391 0.15326162 0.29753417
-0.035621807 0.15464595 0.29716733
-0.024679361 0.1550402 0.2973761
-0.014878221 0.15360871 0.29714671
-0.0064622452 0.15157673 0.29813099
-0.082604766 0.019622026 0.30962679
-0.074754089 0.018141048 0.30908021
-0.064520463 0.017862763 0.30770671
-0.055460934 0.017619573 0.30751082
-0.04519511 0.017502295 0.3074533
-0.034910694 0.016726246 0.30771044
-0.025520073 0.016591834 0.30670062
-0.014423355 0.014272491 0.30755267
-0.0038536983 0.018124053 0.30671394
-0.10100984 0.029570702 0.30888781
-0.094334178 0.028296107 0.30857822
-0.084955305 0.026723227 0.30734748
-0.07531108 0.024378104 0.30652544
-0.065075085 0.023647919 0.30537954
-0.055594683 0.02666761 0.30315888
-0.04534927 0.025235748 0.30301791
-0.034019321 0.024923144 0.30199805
-0.026772462 0.023092041 0.30206349
-0.014872355 0.022155466 0.30189925
-0.0043818112 0.023194319 0.30217803
0.0056588626 0.025786726 0.30588296
-0.12143733 0.038020372 0.30926141
-0.11408388 0.036551598 0.30859751
-0.1042707 0.036121987 0.30739683
-0.096103117 0.034416247 0.30677554
-0.085669279 0.035211179 0.30511409
-0.074335761 0.036172058 0.30323276
-0.064718813 0.034540299 0.30208603
-0.055106368 0.033335868 0.3011966
0.008336856 0.033119917 0.30243313
0.012892219 0.037983559 0.30584618
-0.14158931 0.047006071 0.30959123
-0.13452528 0.046578303 0.30896646
-0.12508252 0.045561988 0.30805674
-0.11506902 0.044330359 0.30712125
-0.10586255 0.044840302 0.3060458
-0.094263203 0.044281796 0.30454379
-0.083497904 0.045457944 0.30284324
-0.075142041 0.044446837 0.3017303
-0.066707797 0.044105861 0.30061796
0.013558724 0.045938317 0.30404299
-0.15396541 0.056624688 0.30973321
-0.14496866 0.053625058 0.30922377
-0.13511379 0.054118484 0.30813414
-0.12494235 0.055447418 0.30693859
-0.11484376 0.055239107 0.30589482
-0.10412065 0.054914638 0.30454236
-0.093753435 0.056436457 0.30285004
-0.086508058 0.054430779 0.30208263
-0.075944804 0.054366272 0.3006064
0.014048481 0.055008311 0.30359751
-0.16269547 0.065516345 0.30974329
-0.15551594 0.066530064 0.30911875
-0.14479959 0.064757191 0.30820292
-0.13490966 0.065846458 0.30707061
-0.12572008 0.06537354 0.30638468
-0.11469105 0.064430691 0.30508447
-0.10530271 0.067139097 0.30350262
-0.094025202 0.064736158 0.30230644
-0.084406622 0.064723462 0.30091012
-0.076712511 0.062419619 0.3001425
0.013906973 0.065583162 0.30374902
-0.16349874 0.072520487 0.30956778
-0.1546869 0.076253071 0.30904257
-0.14396454 0.075325362 0.30822572
-0.13481413 0.074952729 0.30728891
-0.12458153 0.07439398 0.30589223
-0.11571516 0.074458025 0.30463111
-0.10534634 0.074610531 0.3032065
-0.094306156 0.07491035 0.30206391
-0.085361272 0.074548505 0.30076578
0.013568699 0.075202309 0.30475712
-0.15380263 0.084722795 0.30923736
-0.14511172 0.084877588 0.30867895
-0.13403028 0.084693916 0.3073948
-0.12390809 0.084986866 0.30558163
-0.11374172 0.084980793 0.30400729
-0.10464363 0.085612416 0.30278111
-0.096433565 0.084972747 0.30197302
-0.088558666 0.085616529 0.30059686
0.0094638485 0.08969482 0.30060285
0.013128509 0.084473498 0.30578342
-0.15181731 0.09692096 0.30948046
-0.14376177 0.09505482 0.30849722
-0.1347578 0.094051383 0.30692726
-0.12441871 0.094703801 0.30547619
-0.11550527 0.095596731 0.30396184
-0.10444956 0.09556549 0.302331
-0.095395535 0.093991086 0.30109781
0.0093003232 0.095767811 0.30113095
0.012670719 0.094531089 0.306568
-0.15222545 0.10246634 0.30993834
-0.14560872 0.10532714 0.30902302
-0.13484474 0.1055933 0.30706275
-0.12485742 0.10469399 0.30538684
-0.11459591 0.10508553 0.30371919
-0.10421319 0.10498046 0.30219987
-0.095499769 0.10546813 0.30089995
0.0092272246 0.10495082 0.30155155
0.01226678 0.1029389 0.30650884
-0.14209481 0.11306474 0.30918694
-0.13507293 0.1141923 0.30849037
-0.1249984 0.11522543 0.30694512
-0.11501886 0.11578868 0.30517876
-0.10385681 0.11438673 0.30283436
-0.095945761 0.11673297 0.30139464
0.0086311987 0.11503787 0.30189309
0.01140991 0.11266832 0.30647662
-0.12385359 0.12183534 0.30870485
-0.11428239 0.12373192 0.30756062
-0.10523033 0.12608691 0.30590662
-0.093207359 0.12433028 0.30194739
-0.086460255 0.12836158 0.30090639
0.0087180352 0.12534565 0.30436608
0.010281337 0.12277677 0.30709174
-0.10258157 0.13224152 0.30835074
-0.093959399 0.13588966 0.30624405
-0.085241996 0.13595104 0.30239913
-0.079813525 0.1354776 0.30011648
0.0075805853 0.13436496 0.30545676
-0.085289791 0.1455262 0.30710691
-0.075892575 0.14512755 0.30226973
-0.068350188 0.14886411 0.30084705
-0.00055285008 0.1491365 0.30053815
0.0041366075 0.14511491 0.30365199
-0.081358932 0.15165003 0.30820391
-0.075472094 0.15386616 0.30661425
-0.065047167 0.15579121 0.30389559
-0.054375369 0.15750758 0.30264187
-0.044828504 0.15895706 0.30171955
-0.035354625 0.15931101 0.30111226
-0.021874763 0.15949711 0.30132216
-0.01474453 0.15881039 0.30153757
-0.0042189085 0.15638286 0.30444637
0.0028974926 0.15212585 0.30654618
-0.061419487 0.16153729 0.3079401
-0.053259589 0.16325048 0.30743662
-0.044787738 0.16389339 0.30617461
-0.034966495 0.16416185 0.30619445
-0.025422486 0.16317269 0.30500981
-0.01584113 0.1631766 0.30624253
-0.0072216969 0.16108622 0.30815935
-0.13452236 0.018321518 0.31928569
-0.1252273 0.018438796 0.31815732
-0.11569018 0.015966084 0.31777769
-0.10520114 0.014689356 0.31655666
-0.093648165 0.01553775 0.31368622
-0.083827101 0.014277845 0.31202713
-0.075440824 0.013590775 0.31099957
-0.065714493 0.010907656 0.31083268
-0.052801922 0.010935202 0.31122592
-0.043680113 0.013255739 0.310765
-0.034462541 0.011143966 0.31100231
-0.027742611 0.011344864 0.31041056
-0.0019277756 0.012847114 0.31317934
0.0039943187 0.016968694 0.31539401
-0.17275462 0.029724076 0.31906131
-0.16352195 0.027516404 0.31882915
-0.15618232 0.027929774 0.3175745
-0.1455496 0.025868421 0.31707016
-0.13535181 0.024491569 0.31637928
-0.12409221 0.025267046 0.31444499
-0.11501987 0.025487849 0.31295818
-0.10555767 0.024480017 0.31186989
-0.096762665 0.022364527 0.31126776
-0.089743055 0.020074988 0.31128222
0.0086729433 0.022050185 0.31508523
0.013199538 0.028687537 0.31552872
-0.20468274 0.039704241 0.31981629
-0.19458359 0.037199076 0.31916487
-0.18382177 0.037135262 0.31787789
-0.17339544 0.034554247 0.31718734
-0.1649237 0.034535624 0.31610164
-0.15512888 0.035421476 0.31429136
-0.14492525 0.036116529 0.3127017
-0.13433886 0.034618769 0.31196725
-0.12479454 0.032594975 0.31131157
-0.11773357 0.030979842 0.31060404
0.015480784 0.035094056 0.31384209
-0.21474507 0.048305135 0.31972775
-0.20508726 0.045819968 0.31845346
-0.19503234 0.046386015 0.31696242
-0.1865024 0.043524005 0.31635737
-0.17521754 0.044775311 0.31457627
-0.16400422 0.045592736 0.31274197
-0.15522978 0.045124333 0.31166652
-0.1468769 0.043547988 0.31106836
-0.13616204 0.041641127 0.31046191
0.018242121 0.044254921 0.31487945
0.020403728 0.048036035 0.3190667
-0.22349727 0.055499464 0.31987202
-0.21443288 0.056206692 0.31885833
-0.20466785 0.054991856 0.31709126
-0.19424652 0.056926753 0.3150869
-0.18534853 0.053853694 0.31461641
-0.17388782 0.056370605 0.31216285
-0.16570188 0.054168705 0.31139791
-0.15723659 0.053859167 0.31048656
0.018757526 0.054304488 0.31370869
0.020412812 0.055156592 0.31906408
-0.23056947 0.065840065 0.31991389
-0.22446547 0.064962134 0.31937897
-0.21532734 0.065243371 0.31845325
-0.20576787 0.065183029 0.31637463
-0.19483255 0.065582618 0.31401637
-0.1837576 0.064789288 0.31246263
-0.17542049 0.064136133 0.31153119
-0.16592871 0.066365495 0.31011415
0.01850201 0.065362819 0.31436536
0.020423949 0.061534867 0.31911975
-0.22527912 0.074709028 0.31913114
-0.21419676 0.075176962 0.31770739
-0.20625721 0.074426144 0.31616783
-0.19564788 0.074587531 0.31394234
-0.18443036 0.073983885 0.31209448
-0.17616616 0.075309984 0.31096599
-0.1658989 0.077223934 0.31001338
0.017841894 0.075318299 0.31523794
-0.23270591 0.083279364 0.31960541
-0.22497068 0.085311502 0.31868696
-0.21303558 0.085840277 0.31738067
-0.20409155 0.084411509 0.3156451
-0.19457324 0.084649086 0.31386551
-0.18476418 0.083937697 0.31289202
-0.17546307 0.084468551 0.31200758
-0.16597755 0.086222693 0.31080818
-0.15977885 0.088787422 0.31
0.017145922 0.084933624 0.31600016
-0.23343253 0.094326556 0.3194865
-0.22445154 0.095358297 0.31854507
-0.21504635 0.09514267 0.31716526
-0.20506224 0.094647571 0.31582952
-0.19572785 0.096432328 0.31462923
-0.18533891 0.094239324 0.31331623
-0.17356499 0.095331445 0.31228238
-0.16361026 0.095804863 0.31100449
-0.15765168 0.093983449 0.31034222
0.015620998 0.094172597 0.31480294
-0.23358102 0.10263882 0.31955579
-0.2263037 0.10472683 0.31890678
-0.21387891 0.10484046 0.31740344
-0.20638284 0.10519214 0.31649679
-0.19523802 0.10533184 0.31496733
-0.1844966 0.10490486 0.31371105
-0.17464392 0.10482677 0.3129167
-0.1659019 0.10590011 0.3117761
-0.1563143 0.10471465 0.31047112
0.014566693 0.10471814 0.31395844
-0.22414047 0.11330854 0.31948981
-0.21600512 0.11441083 0.31881332
-0.20423628 0.11508019 0.3177492
-0.19514668 0.1158329 0.31672484
-0.18456984 0.1168682 0.31599173
-0.17591588 0.11669116 0.31506735
-0.16515648 0.11394527 0.3129881
-0.15526935 0.1150858 0.31171528
-0.14624177 0.11747551 0.31107804
0.013992727 0.11611494 0.31509203
-0.20388559 0.12204169 0.3195051
-0.19196391 0.12200394 0.31895858
-0.18465924 0.12198067 0.31805435
-0.1736691 0.12330128 0.31737748
-0.16471407 0.12460589 0.31721207
-0.15468468 0.12558366 0.31632197
-0.1448286 0.12566087 0.31483817
-0.13569768 0.12497149 0.31280103
-0.12437112 0.12765044 0.31182763
-0.11857776 0.12989292 0.31196201
0.013449251 0.12514481 0.31618127
-0.14505526 0.13078249 0.31909639
-0.13382129 0.13061926 0.31663904
-0.12343506 0.13257234 0.31693193
-0.1153989 0.13419777 0.3160418
-0.10654375 0.13645217 0.31413516
-0.097935177 0.13851374 0.31063578
0.0097220726 0.13706873 0.31067166
0.012260061 0.13394393 0.31558573
-0.10063481 0.14331417 0.31742024
-0.094474867 0.14542353 0.31424433
-0.086169183 0.1494312 0.31040025
0.0090253409 0.14474884 0.31283695
0.010928002 0.14491448 0.31715196
-0.091808259 0.15355225 0.31838486
-0.084673196 0.15558802 0.31395835
-0.076900043 0.15864189 0.3119038
-0.00052538415 0.15917756 0.31133723
0.0056822808 0.15474916 0.31518182
-0.082194507 0.16221961 0.3180567
-0.075176656 0.1640048 0.31599256
-0.065747529 0.16573183 0.31407419
-0.055157125 0.16783397 0.31447455
-0.04600716 0.16835819 0.31280947
-0.035364151 0.16885579 0.3133375
-0.025630878 0.16817597 0.3128686
-0.014693089 0.16799006 0.31515467
-0.0050844993 0.16450414 0.31506306
0.0024793784 0.16172895 0.31901389
-0.064045079 0.17036609 0.31913212
-0.057274319 0.1700917 0.31804603
-0.044894341 0.17054617 0.31642765
-0.034486532 0.17162947 0.31808612
-0.024363484 0.17115493 0.31821734
-0.22151768 0.019328251 0.32990658
-0.21790922 0.019451039 0.32917944
-0.20571618 0.017955435 0.32820389
-0.19551428 0.017792048 0.32723606
-0.18483712 0.014836364 0.32814232
-0.1750237 0.014980091 0.32708603
-0.16581868 0.013948274 0.32594731
-0.15422477 0.016803272 0.32280535
-0.14546733 0.016421258 0.32196474
-0.13559224 0.013513501 0.32188669
-0.12445097 0.011851319 0.32089546
0.0067548552 0.01511294 0.32494867
0.010726195 0.019907741 0.32952821
-0.2457594 0.028172651 0.32926553
-0.23563448 0.027527649 0.32788
-0.22486132 0.026236955 0.32689148
-0.21570201 0.024521086 0.32654357
-0.20586443 0.023946207 0.32534623
-0.19486851 0.026729707 0.32285234
-0.18496488 0.025967039 0.32234403
-0.17514618 0.024453657 0.32202548
-0.16592777 0.022184173 0.3220883
-0.15586457 0.021348825 0.32088
-0.14820564 0.020429557 0.32014227
0.0097757699 0.021089487 0.32179326
0.013153343 0.024577182 0.32499856
-0.26287848 0.037386868 0.32918
-0.25426754 0.035761248 0.32800531
-0.24492915 0.034934901 0.32654634
-0.23466067 0.034767989 0.32482836
-0.22524343 0.036963765 0.32280427
-0.21406308 0.034361146 0.32220218
-0.20472023 0.033606142 0.32142934
-0.19589937 0.033895519 0.32039177
-0.18035465 0.030432444 0.32014054
-0.17902985 0.030174777 0.32013607
0.018604385 0.035101525 0.32485339
0.020286111 0.039365236 0.32744667
-0.27110517 0.046699248 0.32951593
-0.26456407 0.045820311 0.32790706
-0.25569874 0.044560049 0.32639906
-0.24407737 0.045133505 0.32428697
-0.23382635 0.045047093 0.3223471
-0.22538742 0.043963976 0.32128364
-0.21590848 0.043898582 0.32039654
0.021063438 0.046457615 0.32403591
-0.27264711 0.058274344 0.3287777
-0.26534864 0.054053068 0.32685757
-0.25433189 0.054266594 0.32482532
-0.24416977 0.055949133 0.32275581
-0.23647533 0.054140214 0.32180235
-0.22639817 0.053492967 0.32040501
0.022062059 0.056442466 0.32672918
-0.27242038 0.065191776 0.32750085
-0.26583162 0.063175045 0.32583526
-0.25614992 0.064126492 0.32400829
-0.24468826 0.065327756 0.32206935
-0.23570715 0.065252379 0.32091311
-0.2269147 0.062703677 0.32018292
0.019840658 0.06838882 0.32059211
0.021140888 0.065536104 0.32561252
-0.2734988 0.075635746 0.32704166
-0.26442519 0.075689994 0.32453978
-0.25393522 0.076131336 0.3227028
-0.24619861 0.07427603 0.32172969
-0.23547542 0.075818487 0.32051721
0.019379808 0.076360404 0.32350534
0.020081367 0.07275454 0.32757989
-0.28019321 0.083466411 0.32951593
-0.27513024 0.086119778 0.32695249
-0.26506293 0.085284539 0.32404476
-0.25352105 0.085184053 0.32233375
-0.24487403 0.085274287 0.32112131
-0.23826556 0.08489418 0.32045308
0.018835977 0.083539158 0.32649595
-0.28236225 0.098140143 0.3295449
-0.2765047 0.095284514 0.32683372
-0.26640052 0.095200881 0.32408011
-0.25418586 0.094989441 0.32244566
-0.24543576 0.094992064 0.3212164
-0.2380528 0.095122911 0.32041055
0.018162604 0.095903181 0.32541931
-0.28168827 0.10347241 0.32871684
-0.27537748 0.10550195 0.32609555
-0.26460335 0.10551849 0.32374001
-0.2527633 0.10529602 0.32226342
-0.24584386 0.10529752 0.32127935
-0.23639126 0.10654256 0.32018626
0.017197916 0.10551781 0.3241207
-0.28281847 0.11580375 0.328789
-0.27607542 0.11513886 0.32617816
-0.26526821 0.11535996 0.32396561
-0.25410122 0.11391008 0.32263815
-0.24586864 0.11630591 0.32195193
-0.2372096 0.11525159 0.3210021
-0.22697838 0.11639158 0.32002926
-0.21646196 0.11971811 0.32014361
0.016379718 0.11478614 0.32452166
-0.28183043 0.12520023 0.32792699
-0.27674961 0.12583724 0.3263483
-0.26569134 0.12445045 0.32435983
-0.25571704 0.12502411 0.32352287
-0.24392752 0.12398133 0.32257745
-0.23435576 0.12510361 0.32216379
-0.22503555 0.1256332 0.32154679
-0.21436599 0.12708552 0.32164267
-0.20550539 0.12774207 0.32183334
-0.19508308 0.12749033 0.32205701
-0.18438096 0.12770543 0.3215673
-0.17504567 0.12886931 0.32169068
-0.1645997 0.12943336 0.32088262
0.01556769 0.12575001 0.32448855
-0.28205052 0.13658397 0.32902786
-0.27469021 0.13511135 0.32696408
-0.26491883 0.13488311 0.32560828
-0.25535285 0.13639541 0.32547909
-0.24570595 0.13478063 0.32445329
-0.23597831 0.13592207 0.32440349
-0.224446 0.13468052 0.32429737
-0.21447466 0.13672933 0.32629114
-0.20530725 0.13436739 0.32693011
-0.19583228 0.1331645 0.32723173
-0.18567191 0.132268 0.32654983
-0.1750527 0.13291928 0.32705495
-0.16492039 0.13369311 0.32687548
-0.15501101 0.13393368 0.3257035
-0.14546768 0.13471667 0.32510412
-0.13495652 0.13530751 0.32384872
-0.12557586 0.13719836 0.32394671
-0.11541045 0.13870327 0.3220953
0.014858976 0.1363721 0.32462022
-0.27521819 0.14205006 0.32906991
-0.26361364 0.14397624 0.32769176
-0.25487536 0.14525414 0.32753661
-0.24485391 0.14404747 0.32686588
-0.23507029 0.14501272 0.32751217
-0.22521769 0.14321068 0.32768285
-0.21589524 0.14062279 0.32827622
-0.12232946 0.14033304 0.32686481
-0.11365643 0.14435865 0.32691488
-0.10497172 0.14538686 0.32286289
-0.09976808 0.14995369 0.32272178
0.014123924 0.14510693 0.32400706
-0.24464248 0.15127353 0.32958287
-0.2369903 0.1501475 0.32968849
-0.10350537 0.15440716 0.32754371
-0.095192939 0.15566929 0.32304239
0.0086300084 0.15844409 0.3242214
0.012860047 0.15358002 0.32680288
-0.10136784 0.16043563 0.3287214
-0.094215371 0.16414922 0.32727751
-0.086048275 0.16625093 0.32426566
-0.076848954 0.16933353 0.32205418
-0.0048760655 0.16830657 0.32511508
0.0039367033 0.1635537 0.32486075
-0.085231572 0.17182635 0.32928881
-0.076089725 0.17331457 0.3262437
-0.065967053 0.17342985 0.32522562
-0.054397516 0.17469695 0.32493559
-0.044965949 0.17423347 0.3231335
-0.035720766 0.17438339 0.32455352
-0.025795123 0.17405717 0.32638693
-0.015842238 0.171808 0.32448223
-0.0086642103 0.17011151 0.32722908
-0.27378029 0.017548466 0.33920041
-0.2649146 0.017100155 0.33765939
-0.25585884 0.014539834 0.33743951
-0.2453125 0.014216338 0.33651581
-0.2351702 0.01628929 0.33388501
-0.22476599 0.015553077 0.33261049
-0.21551794 0.013522265 0.33180287
-0.20427139 0.011019756 0.33137423
-0.19360784 0.010606735 0.33035731
0.0080653736 0.014556039 0.3354634
0.011065425 0.019103076 0.33703941
-0.28227314 0.027090365 0.3384507
-0.27570337 0.024648108 0.3367534
-0.26533738 0.026234271 0.33375227
-0.25437957 0.024631655 0.33231196
-0.24583124 0.022385124 0.33196458
-0.23549655 0.021488803 0.33106756
0.014510969 0.025226709 0.33497143
-0.28282055 0.034586471 0.33700621
-0.2733874 0.034269392 0.33295003
-0.26581886 0.034054276 0.33102334
0.018904567 0.034166969 0.33540204
0.020092517 0.039180409 0.33671784
-0.2853283 0.043998212 0.33673176
-0.27601722 0.043782208 0.33207795
0.021061044 0.044999238 0.33530447
-0.29123783 0.054851819 0.33943102
-0.28514889 0.054389119 0.33532438
-0.27778172 0.054096002 0.33146375
0.021538226 0.054917745 0.33430594
-0.29107735 0.06697908 0.33841354
-0.2840822 0.064986803 0.33360314
-0.27782801 0.064647019 0.33020279
0.02074364 0.064668499 0.33514416
-0.29173535 0.07618133 0.33758754
-0.28465879 0.073912263 0.33307871
-0.27994806 0.073023319 0.33036882
0.019818351 0.079908244 0.33352318
0.020040087 0.073778428 0.33569345
-0.29289299 0.084908739 0.33724457
-0.2851426 0.084839866 0.33232561
0.019376695 0.085507713 0.33305231
0.020579848 0.084510803 0.33792815
-0.29356736 0.095334008 0.33672839
-0.28716785 0.093878105 0.33234319
0.019337634 0.093792833 0.33235168
0.020127865 0.09546604 0.33692536
-0.29442242 0.10573418 0.33652723
-0.28653994 0.10425292 0.33143809
0.019004855 0.10557213 0.33410901
0.02 0.10051359 0.33843222
-0.2945506 0.11607774 0.33596492
-0.28768596 0.11462507 0.33126062
0.017915016 0.11463135 0.33434713
-0.29480526 0.12651053 0.3355062
-0.28874198 0.12557438 0.33165067
0.017172623 0.12508513 0.33474877
-0.29385817 0.13620152 0.33557504
-0.28778091 0.13717726 0.33172089
-0.20281605 0.1384024 0.33161852
-0.19504492 0.13738126 0.33258429
-0.18568665 0.13762794 0.33419305
-0.17549321 0.13777772 0.33429193
-0.16486922 0.13840705 0.33383304
-0.15304545 0.1387305 0.33264145
-0.14479925 0.1390969 0.33173078
-0.13666883 0.13931769 0.33045146
0.018423453 0.13480403 0.33561221
0.020300306 0.13628811 0.33922777
-0.29212183 0.14404941 0.33756587
-0.2850599 0.14652118 0.33503437
-0.27571356 0.14713389 0.33256924
-0.26628402 0.14850171 0.33099541
-0.25983888 0.14998475 0.33075249
-0.2217999 0.14923546 0.33202857
-0.21444659 0.14571768 0.33233503
-0.20517564 0.14445648 0.33535579
-0.19610985 0.14184187 0.33739519
-0.18512157 0.14178708 0.33938786
-0.17615052 0.14134625 0.3383877
-0.16419339 0.14194787 0.33796248
-0.15384948 0.14314239 0.33739528
-0.14503518 0.14489977 0.33721989
-0.13561425 0.14503618 0.33494288
-0.12534977 0.14445987 0.33207324
-0.11777565 0.14954723 0.33193925
0.018404564 0.1445934 0.33542475
0.020109318 0.14170764 0.33754662
-0.2813617 0.15158743 0.33803111
-0.27480507 0.15178947 0.33676794
-0.26587555 0.15418576 0.33653662
-0.25404042 0.15622693 0.33522746
-0.24568979 0.15623166 0.33348146
-0.23578118 0.15517867 0.3323957
-0.22566874 0.15571363 0.3341924
-0.21573223 0.15408647 0.33736315
-0.2081565 0.15116467 0.33888644
-0.14251722 0.15581512 0.33887133
-0.13488451 0.15577978 0.33740425
-0.12553091 0.15509488 0.33482817
-0.11383233 0.15515472 0.33195543
-0.10916258 0.15941066 0.33130956
0.0097257867 0.15927422 0.33354318
0.013256334 0.15496026 0.33385977
-0.24516828 0.16149105 0.3383247
-0.235219 0.16236016 0.33776677
-0.22577929 0.16241927 0.33828187
-0.21770403 0.16160434 0.33970094
-0.13343856 0.16418107 0.33832711
-0.12486349 0.16549808 0.33716848
-0.11444722 0.16560102 0.33476225
-0.10454681 0.16477314 0.33193251
-0.096143007 0.16907369 0.33191711
-0.0035444384 0.16870607 0.3359215
0.0046179346 0.16406368 0.33647874
-0.12235709 0.17004904 0.33911064
-0.11379367 0.17136648 0.33786285
-0.10496046 0.17310135 0.33688119
-0.09523464 0.17445728 0.33618334
-0.086253628 0.17477982 0.33403736
-0.074649945 0.17617378 0.33398339
-0.064969726 0.17711832 0.33507583
-0.055019137 0.17746168 0.3360666
-0.044256702 0.1767177 0.33528677
-0.035019524 0.17593484 0.3341715
-0.023120025 0.1744473 0.33430213
-0.015987581 0.17291777 0.33465692
-0.0091038197 0.17064655 0.33274761
-0.29278222 0.014130874 0.34747249
-0.28486273 0.015981097 0.34347382
-0.27640706 0.013371009 0.3417646
-0.26801866 0.011228452 0.3405498
0.0084641241 0.014226837 0.34548756
0.011221525 0.01858275 0.34334913
-0.29479218 0.025021587 0.34634456
-0.28664953 0.023500886 0.34177685
0.014123281 0.024308067 0.34517187
-0.29444686 0.034821264 0.34424698
-0.28910887 0.033339068 0.34037572
0.018530946 0.035764735 0.34498277
-0.3000024 0.046639375 0.34914199
-0.29533869 0.044585954 0.34382883
0.019600848 0.042004243 0.34477735
0.020440698 0.046039 0.34440395
-0.30077681 0.054817457 0.34966519
-0.29631481 0.054810498 0.34409639
0.020999998 0.053912722 0.34366351
-0.30052769 0.063517697 0.34929147
-0.29597762 0.064924926 0.34323472
0.020952292 0.065286562 0.34540236
-0.30171537 0.077118576 0.34882867
-0.29753429 0.073460035 0.3435902
0.021148715 0.073936902 0.3453809
-0.30107898 0.082920112 0.34708363
-0.29801598 0.085695229 0.34222087
0.020982331 0.085645683 0.34558383
-0.30175456 0.094902292 0.34691331
-0.29836676 0.09400934 0.34162128
0.020230049 0.094546758 0.34418774
-0.30142635 0.10485033 0.34489787
-0.29930389 0.10316977 0.34151196
0.019331627 0.10540036 0.34502357
0.02 0.10236547 0.34184083
-0.30181608 0.11533166 0.34506336
0.019020459 0.11436805 0.34553185
-0.30170199 0.12634093 0.34446597
0.018821048 0.12481736 0.34296882
0.02054793 0.12521255 0.34814829
-0.30130863 0.13597609 0.34648284
-0.29905838 0.13645017 0.34244132
0.021074766 0.13441934 0.34630749
-0.30056536 0.14099556 0.348589
-0.29536217 0.14605594 0.34369889
-0.2002029 0.1492539 0.34165245
-0.19581708 0.14776903 0.34208876
-0.18481657 0.14454286 0.34216565
-0.17447218 0.14626364 0.34235474
-0.1637904 0.14709653 0.34137255
-0.15230155 0.14986509 0.3404333
0.019045595 0.14519545 0.34571362
0.020354489 0.14222756 0.34405482
-0.29112327 0.15228401 0.34619787
-0.28422761 0.1544726 0.34441814
-0.27435976 0.15724964 0.34405634
-0.26428768 0.15890379 0.34140292
-0.25840348 0.15961584 0.34031278
-0.2105027 0.15931547 0.34203812
-0.20440032 0.154741 0.34257251
-0.19385883 0.15513597 0.34521824
-0.18480167 0.15508573 0.3456046
-0.17501873 0.15556327 0.34471408
-0.16422951 0.15367106 0.34276938
-0.15703869 0.15604419 0.34201103
-0.14836542 0.1548769 0.34046602
0.0088252546 0.15878104 0.34543324
0.013660139 0.15410249 0.3449856
-0.27569568 0.16007352 0.34968379
-0.26437572 0.16332409 0.34702837
-0.25392038 0.16513945 0.34506339
-0.24565879 0.16738862 0.34504268
-0.2351236 0.16747245 0.34355396
-0.22491387 0.16720523 0.34272331
-0.21553417 0.16556907 0.34264448
-0.20582142 0.16565408 0.34492487
-0.19552565 0.1657912 0.34618342
-0.18421021 0.16672008 0.34592503
-0.17442349 0.16573243 0.34521264
-0.16540037 0.16582385 0.34440598
-0.15459242 0.16534381 0.34313288
-0.14631628 0.16525552 0.34193054
-0.13676704 0.16790786 0.34072143
-0.012354512 0.16913782 0.34790409
-0.0045962208 0.1672999 0.344715
0.0037825429 0.1626031 0.34548667
-0.24170344 0.17125222 0.34932154
-0.23456521 0.1710209 0.34786329
-0.22498354 0.17203368 0.34799099
-0.21377398 0.17230415 0.3480967
-0.20513824 0.17109796 0.34774858
-0.19339682 0.17175731 0.34942985
-0.18461849 0.17188178 0.34842461
-0.1735954 0.17201872 0.34783331
-0.16370785 0.17280963 0.3496972
-0.15478233 0.17245404 0.34747657
-0.14549801 0.17348565 0.34680483
-0.13529022 0.17276894 0.34408942
-0.12508403 0.17442581 0.3447248
-0.11594722 0.17519578 0.34385172
-0.10487425 0.17643215 0.34456363
-0.095959052 0.17654479 0.34580281
-0.085891977 0.17624314 0.3449049
-0.07496053 0.17646191 0.34520492
-0.064338408 0.17712542 0.34468064
-0.05434119 0.17625372 0.34606063
-0.045591168 0.17542145 0.34494567
-0.03444729 0.17406729 0.34582517
-0.025095807 0.17375125 0.34398687
-0.016166171 0.17186971 0.34427455
-0.30202246 0.015995814 0.35669214
-0.29775015 0.015427945 0.35152751
0.0077643809 0.013900097 0.35606635
0.010543324 0.018137604 0.35452214
-0.30173707 0.026511667 0.35437492
-0.29977784 0.0241188 0.35169259
0.014167828 0.024516055 0.35535169
-0.30205187 0.035420157 0.3541584
-0.2997607 0.031699691 0.35045084
0.018516153 0.037120614 0.35541055
-0.30216309 0.044120304 0.35383111
0.01956501 0.042079676 0.35405597
0.020574324 0.046900731 0.35556176
-0.30274475 0.054607701 0.35507074
0.021146012 0.055346999 0.35446367
-0.30239743 0.064341903 0.35491788
0.021626297 0.065649495 0.35599226
-0.30275235 0.074116483 0.35538122
0.02192831 0.074852936 0.35557249
-0.30273268 0.085856371 0.35425898
0.022571271 0.083582088 0.35572237
-0.30236155 0.095968522 0.35567844
0.021239309 0.095532872 0.35587311
-0.30226085 0.10557685 0.35541198
0.02146058 0.10466088 0.35486174
-0.30202538 0.11465768 0.35667849
0.021243975 0.1150007 0.35490954
-0.30172941 0.12357195 0.35562435
0.021043168 0.12368445 0.35452968
-0.3025499 0.13469677 0.35460007
0.01940831 0.13507606 0.35898402
0.021027774 0.13476945 0.35365996
-0.30102265 0.14353223 0.35555741
-0.29840845 0.14678121 0.35219246
0.017897377 0.14470197 0.35526028
0.020229694 0.14151825 0.35333329
-0.29363117 0.15336224 0.35490015
-0.28538594 0.15846291 0.3547819
-0.27857596 0.15978928 0.35154918
-0.00022270711 0.15920922 0.35801557
0.0053327829 0.1575788 0.35561225
0.012557724 0.15245077 0.3548612
-0.27411884 0.16344121 0.35557598
-0.26559973 0.16743019 0.35465959
-0.25758356 0.16858217 0.35182729
-0.043231748 0.16931999 0.358861
-0.033909999 0.16876701 0.35723796
-0.024925616 0.16809243 0.35556895
-0.014544537 0.16650932 0.35435456
-0.005155989 0.16296004 0.35488182
-0.2629866 0.17136443 0.35989767
-0.2539185 0.17211474 0.35651308
-0.24535148 0.17376292 0.35548663
-0.23463315 0.17494139 0.35399145
-0.22362943 0.17618351 0.35434172
-0.21326217 0.17631631 0.35354036
-0.20413609 0.17586628 0.35387394
-0.19461852 0.17462707 0.35406673
-0.18529147 0.17436229 0.35407144
-0.1763818 0.17433736 0.3540898
-0.16518238 0.1740465 0.35451177
-0.155185 0.17450725 0.35498264
-0.1465648 0.17446268 0.35652283
-0.13561131 0.17435066 0.35619089
-0.12436367 0.17413278 0.35587192
-0.11547423 0.17364524 0.355461
-0.10464168 0.17351548 0.35455489
-0.095103025 0.1734388 0.35453361
-0.084361196 0.17312895 0.35437742
-0.075413421 0.17371178 0.35365164
-0.065319084 0.17363979 0.35507119
-0.055109106 0.17317443 0.35429806
-0.045044832 0.17253232 0.35323966
-0.033666041 0.17094222 0.35294315
-0.024661046 0.17024073 0.35183722
-0.018482415 0.17009079 0.35025626
-0.303505 0.014116609 0.36527416
0.0088774851 0.014401348 0.36633295
0.010968917 0.019046366 0.36620438
-0.30142355 0.025698816 0.36535618
0.014021467 0.024917509 0.36483529
-0.30130988 0.035906132 0.36535496
-0.29986674 0.03861684 0.36964157
0.017839901 0.035931941 0.36413607
-0.30101949 0.046410456 0.36203241
-0.29926643 0.046606414 0.36835513
0.018446941 0.045044072 0.36622667
0.02 0.041873164 0.3602474
-0.30089161 0.05530699 0.36222348
-0.29926142 0.056549899 0.36710626
0.018928746 0.054379996 0.36688727
0.021344697 0.05492733 0.36239988
-0.30088574 0.064664543 0.36269081
-0.29936144 0.065225668 0.36747816
0.018490193 0.064875707 0.36690137
-0.30092147 0.075771675 0.36297491
-0.29929197 0.072735645 0.36725304
0.017995659 0.075697683 0.36632559
0.021284739 0.075409949 0.36216077
-0.30084911 0.086030975 0.36302593
-0.29987207 0.085408092 0.36753699
0.017294846 0.085647695 0.36666131
0.021400541 0.083230853 0.36090612
-0.30106354 0.094605587 0.3637003
-0.29980206 0.094748057 0.36798978
0.016983302 0.094643451 0.366487
0.020669064 0.095259003 0.36233091
-0.30088964 0.10570073 0.363323
-0.29963899 0.1073034 0.36880526
0.0159127 0.10489639 0.36706337
0.020759879 0.1043259 0.36166739
-0.30060557 0.11465092 0.36357623
-0.29980925 0.1166676 0.36795378
0.01683257 0.11507844 0.36593303
0.020412065 0.11114776 0.36231676
-0.3004075 0.12595049 0.36106101
-0.29945657 0.12603165 0.36572018
0.015936507 0.12480136 0.36563885
0.020187236 0.12483531 0.36074209
-0.30131298 0.13463959 0.36413151
-0.29945329 0.13292675 0.36866033
0.009527633 0.13824649 0.36883411
0.015798463 0.13464279 0.36445272
-0.30119711 0.14334363 0.3658112
-0.29979962 0.14740077 0.36470586
0.0060001221 0.14685935 0.36802146
0.013127408 0.14472993 0.3640075
-0.29469106 0.15316361 0.36610326
-0.28643388 0.15870218 0.36447296
-0.1253667 0.15952827 0.36980969
-0.10920135 0.15971616 0.36993006
-0.032357991 0.15984353 0.36869967
-0.024295259 0.15907986 0.36770681
-0.014864231 0.15731971 0.36742616
-0.0051048934 0.1567089 0.3643755
0.0052174618 0.15267669 0.36383268
0.01157084 0.15070423 0.36105144
-0.28187522 0.16129796 0.36594313
-0.27418578 0.16635218 0.36527151
-0.26908821 0.16870946 0.3626841
-0.175211 0.16956873 0.36920354
-0.16365759 0.16892745 0.36769304
-0.15413186 0.16863485 0.36655557
-0.14455737 0.16664435 0.36637291
-0.13447219 0.16612159 0.36517471
-0.12438402 0.16562723 0.36510777
-0.11500083 0.16524261 0.3655062
-0.10534225 0.16644545 0.36447006
-0.095654793 0.16695231 0.36440951
-0.085175186 0.16696122 0.3644453
-0.075769477 0.1670402 0.36472824
-0.065133646 0.16678582 0.36579964
-0.055056144 0.16764285 0.36373416
-0.045853257 0.16508827 0.3654775
-0.035516694 0.16347799 0.36514208
-0.025425529 0.16313149 0.36333093
-0.016484454 0.16181001 0.3623957
-0.2651253 0.17136176 0.36426857
-0.25507143 0.17388546 0.3640596
-0.24602185 0.1752311 0.36397609
-0.23485631 0.17643546 0.36461541
-0.22317584 0.17785843 0.3650758
-0.21446121 0.17842248 0.3639096
-0.20437349 0.17769614 0.36520445
-0.19374472 0.17457001 0.36675623
-0.18400215 0.17359841 0.36482957
-0.17451498 0.17274867 0.36384189
-0.16478899 0.17254055 0.36277208
-0.15601726 0.17226051 0.36240041
-0.14512001 0.17144409 0.36124438
-0.13724627 0.1717691 0.36023089
-0.12791757 0.17029572 0.3609634
-0.084290646 0.17001355 0.36031076
-0.065786846 0.17047293 0.36121175
-0.30039802 0.012140332 0.3731477
-0.29890746 0.015439748 0.37636891
-0.012731877 0.015803643 0.37941113
-0.0042832256 0.015590621 0.3775807
0.0057752188 0.016942924 0.37291217
-0.29844546 0.024004238 0.37477276
-0.0046028495 0.023533987 0.37872761
0.0047534825 0.025929444 0.37605554
0.012103544 0.027829727 0.3719022
-0.29821381 0.034253806 0.37460947
-0.0028845537 0.033019606 0.37941813
0.0051165186 0.035492178 0.37733692
0.013758754 0.035771407 0.372316
-0.2979306 0.045453236 0.37638676
-0.00065790355 0.043367658 0.37986314
0.0054561538 0.045716617 0.37750393
0.013794193 0.045797423 0.37278298
-0.29833928 0.054526068 0.37505671
0.0050754384 0.054751337 0.37761438
0.013083722 0.054651842 0.37314147
-0.29834601 0.065436788 0.37457353
-0.0013158453 0.065549433 0.37932444
0.0053918995 0.064404726 0.37681079
0.012569953 0.064344123 0.37243703
-0.29808658 0.075286351 0.37550864
-0.0021745847 0.074760757 0.37899882
0.0045422437 0.073936425 0.37659347
0.012416082 0.074462034 0.37186557
-0.29825068 0.085643537 0.37561849
-0.0036114529 0.085722581 0.37859765
0.0049309628 0.084432155 0.37559703
0.011691341 0.083932757 0.37171206
-0.29868177 0.094630547 0.37359107
-0.0042406744 0.094992451 0.3781487
0.0055822888 0.09510731 0.37472019
0.011382765 0.095106721 0.37152076
-0.29827479 0.10403451 0.37554511
-0.013178206 0.10666968 0.3794772
-0.0040779049 0.1052488 0.37752828
0.0064849239 0.10483276 0.37370357
0.010097208 0.10476345 0.37192708
-0.29827145 0.11511561 0.37505195
-0.016162122 0.11521479 0.37951675
-0.005657875 0.11499304 0.37709761
0.0062466986 0.11573608 0.37316847
0.011762195 0.11475295 0.37056971
-0.29781544 0.12518589 0.37550938
-0.021247964 0.12835838 0.37915134
-0.013624597 0.12513678 0.37816104
-0.0059629236 0.12392655 0.37655878
0.0058652577 0.1259805 0.37221378
-0.30043918 0.13902888 0.37112164
-0.29788619 0.13582115 0.37551039
-0.035102624 0.13927609 0.3797653
-0.024812957 0.13609436 0.3787668
-0.015145951 0.13495415 0.37731326
-0.004537541 0.1349155 0.37482569
0.0042091622 0.13549651 0.37171081
-0.29730418 0.14697482 0.37546289
-0.15556209 0.1486146 0.3772057
-0.14463909 0.1456497 0.37717801
-0.1347615 0.14391918 0.37724122
-0.12417055 0.14558582 0.37555876
-0.11462113 0.14611855 0.37410909
-0.10448705 0.14598252 0.37423658
-0.094978325 0.1448433 0.37617967
-0.086186066 0.146871 0.37755328
-0.07395415 0.14755403 0.3791734
-0.06396383 0.14778276 0.37924343
-0.0566733 0.14737372 0.37931186
-0.044323001 0.14515394 0.37882948
-0.034018245 0.1473843 0.37758568
-0.024985138 0.14523996 0.37689933
-0.014809174 0.1451562 0.37509623
-0.0039597461 0.14497504 0.37234914
0.0022660787 0.14126611 0.37134975
-0.2921384 0.15378751 0.37618285
-0.28667656 0.15842833 0.37506083
-0.17145646 0.15850274 0.37949514
-0.16386579 0.15704049 0.37820718
-0.15502185 0.15442127 0.37596223
-0.14389639 0.15638006 0.37238002
-0.13411829 0.15459098 0.3720293
-0.1235818 0.15459511 0.37072876
-0.11470205 0.15429796 0.37047186
-0.1036371 0.15525724 0.3718951
-0.095468737 0.15579723 0.37258443
-0.084821433 0.1560204 0.37415534
-0.074836142 0.15492241 0.37621599
-0.064968251 0.15576316 0.37615278
-0.054712612 0.15554519 0.37576497
-0.044947911 0.15508221 0.37478232
-0.036163643 0.15513836 0.37372521
-0.025307694 0.1548513 0.37218618
-0.016110385 0.15301329 0.3715893
-0.0082642511 0.15123516 0.37103924
-0.28278309 0.16091962 0.37402743
-0.27490509 0.16597781 0.37489685
-0.26777896 0.16921368 0.3775607
-0.20462684 0.16903794 0.37930575
-0.19479842 0.16877186 0.37680852
-0.18445665 0.1676501 0.37459502
-0.17539826 0.16561672 0.37461805
-0.16547276 0.16379632 0.37419409
-0.15516186 0.16368914 0.37233105
-0.14597115 0.16174591 0.3711873
-0.10064475 0.16148525 0.37005463
-0.087207608 0.16074407 0.37125596
-0.076114632 0.1614707 0.37138394
-0.065387681 0.16125861 0.37174138
-0.055221379 0.16061136 0.37158591
-0.044189405 0.16028894 0.37088442
-0.26495177 0.17094254 0.37270147
-0.25462699 0.1727605 0.37384632
-0.24432239 0.17388526 0.37360972
-0.23462181 0.17391448 0.37477285
-0.22460403 0.1740379 0.37517983
-0.2142431 0.17373686 0.37505758
-0.20568562 0.17328127 0.37398914
-0.19730422 0.1720628 0.37274143
-0.18576933 0.17033607 0.37136215
-0.29676169 0.016016785 0.38546112
-0.09038797 0.012583163 0.38987756
-0.085217103 0.016842583 0.38887376
-0.074817121 0.015514905 0.38712648
-0.065005161 0.014546591 0.38605466
-0.055101272 0.014283174 0.38471532
-0.045253534 0.014901852 0.38343695
-0.034889672 0.015127968 0.38212606
-0.025894446 0.0150942 0.38088763
-0.017847907 0.016863488 0.38
-0.29617453 0.025352674 0.38396409
-0.082867712 0.024776241 0.38952884
-0.073706433 0.024284104 0.38800025
-0.064303614 0.025903037 0.38705727
-0.05481977 0.025276247 0.3857159
-0.044922255 0.024285221 0.38415998
-0.034728292 0.024736786 0.38307792
-0.025757315 0.025254527 0.38180187
-0.015134717 0.025436353 0.38048631
-0.29561758 0.035133 0.38473448
-0.073966548 0.033284307 0.38945016
-0.065284371 0.036399718 0.38849062
-0.055339929 0.035060119 0.38694182
-0.044793587 0.034801818 0.38551751
-0.034464471 0.036074895 0.3843261
-0.023627948 0.033684991 0.3824417
-0.015210732 0.036282573 0.38172075
-0.0061934367 0.034676038 0.3804293
-0.29539257 0.045832369 0.38564852
-0.065812238 0.044979062 0.38915974
-0.054014508 0.045695316 0.38761652
-0.045431562 0.044613432 0.38630062
-0.036023233 0.045600526 0.38511157
-0.024516361 0.045446899 0.3835406
-0.013962931 0.043445945 0.38237792
-0.006043362 0.045307048 0.38104507
-0.29626691 0.05519877 0.38359374
-0.06602855 0.053396717 0.38921374
-0.055513237 0.055458434 0.3879081
-0.046461534 0.054552022 0.3868365
-0.035690542 0.054363135 0.38493809
-0.025668986 0.054667495 0.38382027
-0.012854072 0.055070437 0.38233539
-0.0062955464 0.055100963 0.38110781
-0.29579026 0.065481558 0.3851524
-0.070517778 0.063780375 0.38990355
-0.064491339 0.064988561 0.38873458
-0.05377619 0.064757265 0.38742727
-0.045950107 0.065275349 0.38613203
-0.035593104 0.065217853 0.38481998
-0.025953108 0.06563852 0.38376451
-0.014235064 0.064333148 0.3824949
-0.0062178173 0.064909339 0.38068083
-0.29587057 0.075546101 0.38506147
-0.07277777 0.0748519 0.38946107
-0.064976484 0.07571964 0.3884896
-0.055169519 0.074778564 0.38701069
-0.044646882 0.075948372 0.3856284
-0.035485383 0.075642549 0.38448608
-0.026545022 0.074369445 0.38325766
-0.015140353 0.074523337 0.38188004
-0.0080736931 0.076017365 0.38041472
-0.29581895 0.084478319 0.38519022
-0.074880473 0.087692097 0.38890588
-0.063759647 0.085171349 0.38761467
-0.055653121 0.084443927 0.38659674
-0.045309938 0.084970161 0.38516662
-0.033211987 0.085821219 0.38352206
-0.023160499 0.085193403 0.3823157
-0.015683828 0.085029773 0.38145149
-0.0091756638 0.08213459 0.38030151
-0.2962189 0.093743213 0.38404405
-0.083784655 0.0957039 0.38955694
-0.074844263 0.095148385 0.3885299
-0.064386778 0.095426083 0.38700339
-0.053860523 0.09517692 0.38582882
-0.043515548 0.095249392 0.38450313
-0.035035867 0.094213173 0.38353491
-0.024904959 0.095154487 0.38209778
-0.014977155 0.095065527 0.38076547
-0.29582134 0.10453237 0.38492233
-0.085231788 0.10491818 0.38952506
-0.074173816 0.10585782 0.38764837
-0.066240154 0.10429115 0.3866711
-0.056124732 0.10587449 0.38552827
-0.044872675 0.1041088 0.38453826
-0.033604808 0.10484482 0.38256711
-0.025165353 0.10538056 0.38152802
-0.018023307 0.10393428 0.38042852
-0.29579076 0.11454194 0.3835527
-0.094147906 0.11621363 0.3896631
-0.085717976 0.11446374 0.38877058
-0.075032756 0.11551969 0.38736451
-0.064815804 0.11622145 0.38593107
-0.055081155 0.11600362 0.38474908
-0.044753782 0.11541477 0.38328969
-0.035146784 0.11555074 0.38201836
-0.024505587 0.11415771 0.38074279
-0.016343862 0.11382576 0.38003483
-0.29520017 0.12475612 0.38359299
-0.11192471 0.12944153 0.38889056
-0.1042093 0.12747809 0.38817552
-0.095743366 0.12536 0.38806388
-0.085522451 0.12477318 0.38699687
-0.076485954 0.12425162 0.3861776
-0.065628417 0.12547559 0.38490555
-0.055334356 0.1249513 0.38388222
-0.043207683 0.12622519 0.38238552
-0.035475694 0.12458003 0.38167098
-0.026084984 0.12306421 0.38034195
-0.29446787 0.13486613 0.38442534
-0.15397313 0.13921353 0.38812962
-0.14490013 0.13797811 0.38690081
-0.13446902 0.13682793 0.38598934
-0.1242936 0.13619502 0.38558421
-0.11508529 0.13634208 0.3841202
-0.10479566 0.13510215 0.38405359
-0.094917424 0.13411166 0.38420773
-0.085429259 0.13561518 0.38293239
-0.075056911 0.13679291 0.38267297
-0.065581702 0.13611755 0.3825464
-0.055371903 0.13565376 0.38210514
-0.046186026 0.13396357 0.381717
-0.035640702 0.13324751 0.38080227
-0.02871849 0.13016093 0.38031149
-0.29351595 0.14657764 0.3847706
-0.17393143 0.14874648 0.38673788
-0.16531926 0.14490339 0.38488722
-0.15612338 0.14363366 0.38226998
-0.14657538 0.14157963 0.38258961
-0.1399831 0.14061558 0.38218105
-0.12635401 0.14118725 0.38002124
-0.08454676 0.1404947 0.38035643
-0.073115483 0.14187372 0.38080111
-0.062834576 0.14249218 0.38060313
-0.05454741 0.14126807 0.38086617
-0.048314728 0.14163119 0.38007382
-0.29074556 0.15266764 0.38280997
-0.28420711 0.15731084 0.38622406
-0.1920667 0.15906537 0.38834816
-0.18383183 0.15661025 0.38641819
-0.17541665 0.15493448 0.38316154
-0.16762941 0.15211508 0.38116407
-0.28092617 0.16063297 0.38405663
-0.27488333 0.16358802 0.38430369
-0.26486111 0.16713409 0.38431993
-0.25476855 0.16794682 0.38520819
-0.24390061 0.16862474 0.38469741
-0.23498945 0.16840491 0.38516089
-0.22489782 0.16813521 0.3854287
-0.21458365 0.1671427 0.38467595
-0.20460057 0.16508232 0.38495573
-0.19450724 0.16262823 0.38493854
-0.18668455 0.16246161 0.38174522
-0.25146633 0.17035176 0.38112053
-0.24723089 0.17047362 0.38081598
-0.23468643 0.17082538 0.38062438
-0.22272553 0.17074339 0.380761
-0.21706529 0.17050467 0.38011914
-0.29497561 0.013669207 0.39383471
-0.15094194 0.017294012 0.39998838
-0.14432546 0.016177295 0.39918271
-0.13407813 0.013637894 0.39736116
-0.12565719 0.014903201 0.39581835
-0.11626938 0.013925837 0.39431971
-0.10530087 0.015240755 0.39189741
-0.095860377 0.015492127 0.39038292
-0.29310453 0.023834676 0.39520144
-0.14246939 0.025802871 0.39965448
-0.13352256 0.023716614 0.39769498
-0.12523128 0.025733083 0.39634314
-0.11443143 0.024945278 0.39448059
-0.10416605 0.024885274 0.39273179
-0.096557483 0.025272757 0.39145514
-0.08646585 0.025920631 0.39004984
-0.29259026 0.034330446 0.39561608
-0.1343641 0.0344344 0.3991482
-0.12432251 0.034322958 0.39722982
-0.11558948 0.036059041 0.3958731
-0.10460985 0.033865146 0.39375988
-0.093495503 0.034184244 0.39222199
-0.084888428 0.034616493 0.39084464
-0.077023625 0.037502855 0.3901583
-0.29201245 0.044418119 0.39695489
-0.13264841 0.045150489 0.39971521
-0.12471016 0.045007054 0.39837122
-0.11543218 0.045347158 0.39677241
-0.10591914 0.044943254 0.3949931
-0.09514448 0.044058513 0.39321023
-0.085452475 0.045178045 0.39195144
-0.074863337 0.04621762 0.39047092
-0.29265949 0.054658208 0.39538366
-0.13165987 0.054293558 0.39994687
-0.12497931 0.055214923 0.39879584
-0.11471408 0.054581415 0.39707243
-0.10417899 0.054941375 0.39549905
-0.094338328 0.05347538 0.39370418
-0.08386223 0.055244282 0.39238921
-0.076785952 0.054199461 0.39115718
-0.29241768 0.064796962 0.39585307
-0.13181108 0.066688545 0.39962879
-0.1241367 0.064277261 0.39862731
-0.11486756 0.064851426 0.39682952
-0.10405204 0.065034136 0.39512846
-0.093948826 0.065442257 0.39358979
-0.085904367 0.065871924 0.39210936
-0.075514846 0.064242311 0.39062458
-0.29247305 0.076612137 0.39564011
-0.13396125 0.074462242 0.39959228
-0.12464181 0.074056424 0.39810231
-0.11543787 0.07412409 0.39666718
-0.10454201 0.074828789 0.39472932
-0.093802482 0.076094702 0.39283717
-0.08575651 0.0737729 0.39177597
-0.077067368 0.074601322 0.39021346
-0.29263201 0.085849263 0.39650235
-0.14047162 0.088537902 0.39989433
-0.13425657 0.085683227 0.39926928
-0.12319726 0.084303655 0.39745235
-0.116162 0.08410804 0.3961688
-0.10522357 0.085159987 0.39404634
-0.093854204 0.08479511 0.39211822
-0.085755765 0.08521758 0.39087087
-0.079891697 0.081453659 0.39028761
-0.29308718 0.095421746 0.3951835
-0.14122523 0.097627185 0.39926139
-0.13498205 0.094549261 0.3985095
-0.12575218 0.095312707 0.39694676
-0.11477917 0.093939237 0.3954567
-0.10552984 0.094726495 0.39363143
-0.095858082 0.094536386 0.39187261
-0.087434061 0.093876347 0.39046976
-0.29294038 0.10482492 0.39523578
-0.14337026 0.1037705 0.39922628
-0.13360816 0.10584027 0.39730996
-0.12600306 0.10518037 0.39610824
-0.11643314 0.10429724 0.39468065
-0.10416543 0.10546902 0.39252621
-0.096328877 0.10355038 0.39124772
-0.088802084 0.10249741 0.39023
-0.29283175 0.11486097 0.39510903
-0.1540489 0.11615041 0.39939845
-0.14416304 0.11579455 0.39804682
-0.13597949 0.11430091 0.396777
-0.12536621 0.11588303 0.39486149
-0.11433192 0.11565328 0.39292285
-0.10500532 0.11441582 0.39170989
-0.096237749 0.11370387 0.39039841
-0.29179886 0.12480504 0.39550659
-0.16088782 0.12947053 0.3977367
-0.15427552 0.12629753 0.39740258
-0.14648584 0.12487279 0.3965832
-0.1348602 0.12595718 0.39383307
-0.12498223 0.12560178 0.39233798
-0.11616191 0.12331257 0.39159063
-0.10726285 0.12151082 0.39075041
-0.29124355 0.13480252 0.39506504
-0.28965271 0.13526575 0.39839101
-0.18079872 0.13941911 0.39861995
-0.17448264 0.13665859 0.39751726
-0.1651163 0.13541238 0.39514267
-0.15442303 0.13370693 0.39371091
-0.14450784 0.13310827 0.39199996
-0.13438879 0.13071451 0.39157057
-0.12958312 0.13137598 0.39035141
-0.29113948 0.14297861 0.39243335
-0.28877136 0.14623787 0.39597437
-0.19205475 0.14800324 0.39799419
-0.18350646 0.14570065 0.39596811
-0.17598663 0.1445692 0.39251709
-0.16647677 0.14037088 0.39064398
-0.28448167 0.15335687 0.39526507
-0.27501005 0.15785153 0.39631471
-0.26596698 0.15936202 0.39779377
-0.25930727 0.1595083 0.39923754
-0.24467367 0.15975767 0.39924234
-0.23135717 0.15919739 0.39887404
-0.22390795 0.15867344 0.39793378
-0.2145354 0.15778238 0.39698952
-0.2040052 0.1565291 0.39559036
-0.19542073 0.15474474 0.39415628
-0.18677621 0.15188943 0.39271951
-0.17961787 0.15039536 0.39022249
-0.27421781 0.16077261 0.39190048
-0.26438865 0.16256908 0.39326966
-0.25521567 0.16303943 0.39412481
-0.24527416 0.16374558 0.39384162
-0.23486234 0.16327025 0.39398333
-0.22507864 0.16343281 0.39256531
-0.21576428 0.16225402 0.39241338
-0.2043457 0.16038138 0.3919282
-0.29125094 0.015884476 0.40260729
-0.28789037 0.015425079 0.40917504
-0.20347975 0.015346933 0.40949544
-0.19397743 0.014998391 0.40754238
-0.18527885 0.014840177 0.40603074
-0.17494167 0.014564186 0.40421942
-0.16403295 0.015250796 0.40257534
-0.15625343 0.014956692 0.40119848
-0.14927749 0.010448603 0.40036577
-0.29069209 0.024648989 0.40167299
-0.28817225 0.025333453 0.40655786
-0.20224743 0.025900492 0.40926921
-0.19389085 0.023433799 0.40752265
-0.18546566 0.025999352 0.40632159
-0.17520691 0.025597265 0.40464354
-0.1654488 0.024242695 0.40303344
-0.15528917 0.026200805 0.40153471
-0.14637472 0.026323885 0.40026593
-0.29046988 0.035496522 0.40106025
-0.28824529 0.035268117 0.40625176
-0.2026884 0.032012299 0.40994012
-0.19520366 0.033807296 0.40883154
-0.18383087 0.035322499 0.40716159
-0.17514405 0.035751265 0.40575248
-0.1635557 0.035657793 0.40403548
-0.15486415 0.033866283 0.40245155
-0.14603995 0.035878919 0.40132207
-0.13949415 0.037122544 0.40032336
-0.29021093 0.046350244 0.40154755
-0.28818423 0.045515373 0.40630046
-0.19363615 0.044942074 0.40952724
-0.18496366 0.044888321 0.40797618
-0.17576781 0.045275219 0.40650028
-0.16510315 0.04504402 0.40476874
-0.15484032 0.042964146 0.40312588
-0.14586215 0.044754758 0.40193489
-0.13704787 0.045577578 0.40028363
-0.29055375 0.053323448 0.40033865
-0.28771207 0.054640234 0.40697584
-0.19293101 0.055097301 0.40939969
-0.18425637 0.054798055 0.40844592
-0.17506234 0.055481747 0.40673444
-0.16587251 0.055586867 0.40508699
-0.15531223 0.055486605 0.4037382
-0.14625436 0.055077113 0.40202823
-0.13610743 0.054559451 0.40022001
-0.29025704 0.063928887 0.40122882
-0.2880111 0.064202115 0.40657303
-0.19391125 0.063211948 0.40958223
-0.18533261 0.065227829 0.40805152
-0.1757056 0.064550541 0.40682057
-0.16471685 0.06530758 0.40474334
-0.15563042 0.06560643 0.40306944
-0.14627306 0.065935023 0.401813
-0.13643673 0.064814329 0.40034631
-0.29033786 0.074560672 0.40098649
-0.28769094 0.074478775 0.40672335
-0.19308104 0.074930266 0.4094162
-0.18401024 0.075317726 0.40762278
-0.17563671 0.073761538 0.40629596
-0.1630376 0.074886508 0.40420622
-0.15241249 0.075307935 0.40228337
-0.14574504 0.075428247 0.40126759
-0.13811767 0.07708481 0.40042353
-0.29037479 0.085575856 0.40117776
-0.28744882 0.085171431 0.40703946
